ply
format ascii 1.0
comment Written by HALCON (export v1.0)
element vertex 553
property float x
property float y
property float z
property float nx
property float ny
property float nz
end_header
-4.957333e-002 -4.460551e-004 7.098378e-003 2.432694e-001 8.097769e-001 5.339301e-001
-4.957333e-002 3.079910e-003 7.098378e-003 4.952005e-001 -8.472276e-001 1.923070e-001
-4.754054e-002 -8.118128e-003 7.098378e-003 2.124820e-001 7.755832e-001 5.944090e-001
-4.754054e-002 -5.267433e-003 7.098378e-003 1.456310e-001 -7.842141e-001 -6.031583e-001
-4.754054e-002 -1.876462e-004 7.098378e-003 -2.601562e-001 9.135268e-001 3.127100e-001
-4.754054e-002 3.069476e-003 7.098378e-003 -2.788963e-001 -9.329302e-001 2.277237e-001
-4.550775e-002 -8.523613e-003 7.098378e-003 4.553894e-001 8.609334e-001 2.267469e-001
-4.550775e-002 -4.953499e-003 7.098378e-003 2.701455e-002 -9.628756e-001 2.685902e-001
-4.550775e-002 1.510480e-004 7.098378e-003 2.020852e-001 7.662813e-001 6.098971e-001
-4.550775e-002 1.388157e-003 7.098378e-003 -4.158497e-001 -1.951190e-001 8.882554e-001
-4.347495e-002 -1.074225e-002 7.098378e-003 4.788986e-001 8.723049e-001 9.869226e-002
-4.347495e-002 -5.180334e-003 7.098378e-003 -6.181666e-001 -6.880337e-001 3.801050e-001
-4.347495e-002 -2.164821e-003 7.098378e-003 7.252833e-001 6.884409e-001 -3.637609e-003
-4.347495e-002 1.838702e-003 7.098378e-003 -5.707985e-001 -7.361486e-001 3.636954e-001
-4.144216e-002 -1.063830e-002 7.098378e-003 -2.779692e-001 9.005701e-001 3.342255e-001
-4.144216e-002 -8.809545e-003 7.098378e-003 -7.085942e-001 -6.570657e-001 2.572136e-001
-4.144216e-002 -3.868205e-003 7.098378e-003 5.046223e-001 6.393784e-001 -5.801308e-001
-4.144216e-002 -1.336398e-003 7.098378e-003 -2.522070e-001 -7.330660e-001 -6.316691e-001
-3.940937e-002 -1.043251e-002 7.098378e-003 -4.278069e-001 7.808394e-001 4.552703e-001
-3.940937e-002 -9.017490e-003 7.098378e-003 4.055748e-001 -7.654515e-001 4.995929e-001
-3.940937e-002 -3.964511e-003 7.098378e-003 3.965716e-001 7.116666e-001 5.798807e-001
-3.940937e-002 -1.350406e-003 7.098378e-003 1.176081e-001 -7.686684e-001 -6.287426e-001
-3.737658e-002 -1.024629e-002 7.098378e-003 -2.565547e-001 9.492411e-001 1.819920e-001
-3.737658e-002 -1.067387e-003 7.098378e-003 8.633991e-002 -8.259951e-001 5.570256e-001
-3.534378e-002 -9.615273e-003 7.098378e-003 -5.963961e-001 7.680452e-001 2.332772e-001
-3.534378e-002 -1.074248e-003 7.098378e-003 -1.144224e-001 -8.063332e-001 5.802881e-001
-3.534378e-002 1.274768e-002 7.098378e-003 7.201202e-001 6.434513e-001 2.596098e-001
-3.534378e-002 1.544224e-002 7.098378e-003 6.445950e-001 -7.184385e-001 2.614256e-001
-3.534378e-002 2.268746e-002 7.098378e-003 9.178693e-001 5.175186e-002 3.934940e-001
-3.534378e-002 2.288947e-002 7.098378e-003 9.270541e-001 -2.166289e-002 3.743012e-001
-3.331099e-002 -8.509229e-003 7.098378e-003 -2.384078e-001 9.400141e-001 -2.439986e-001
-3.331099e-002 -1.435614e-003 7.098378e-003 -1.713131e-001 -7.395256e-001 6.509638e-001
-3.331099e-002 8.192415e-003 7.098378e-003 6.450726e-001 6.625034e-001 3.807499e-001
-3.331099e-002 1.003448e-002 7.098378e-003 7.153733e-001 4.352273e-001 5.466426e-001
-3.331099e-002 1.082578e-002 7.098378e-003 7.075773e-001 3.921629e-001 5.878287e-001
-3.331099e-002 1.554282e-002 7.098378e-003 4.767323e-002 -9.801702e-001 1.923374e-001
-3.331099e-002 2.225312e-002 7.098378e-003 4.995325e-001 8.238791e-001 2.677508e-001
-3.331099e-002 2.724692e-002 7.098378e-003 5.207308e-001 -8.004556e-001 2.968336e-001
-3.127820e-002 -8.454460e-003 7.098378e-003 -5.428627e-001 8.324234e-001 1.112262e-001
-3.127820e-002 -1.478922e-003 7.098378e-003 -5.736814e-001 -6.049886e-001 5.521580e-001
-3.127820e-002 6.373368e-003 7.098378e-003 6.804773e-001 6.325851e-001 3.698468e-001
-3.127820e-002 7.487194e-003 7.098378e-003 1.728664e-001 5.048481e-001 8.457219e-001
-3.127820e-002 1.110324e-002 7.098378e-003 -6.463365e-001 4.365557e-001 6.258341e-001
-3.127820e-002 1.554414e-002 7.098378e-003 7.713631e-002 -9.735780e-001 2.149320e-001
-3.127820e-002 2.022623e-002 7.098378e-003 2.793502e-001 9.209545e-001 2.716732e-001
-3.127820e-002 2.724435e-002 7.098378e-003 -5.841748e-001 -7.417614e-001 3.294385e-001
-2.924540e-002 3.760059e-003 7.098378e-003 6.107530e-001 6.921596e-001 3.845724e-001
-2.924540e-002 6.329176e-003 7.098378e-003 2.439063e-003 -6.528088e-001 7.575188e-001
-2.924540e-002 1.362558e-002 7.098378e-003 -8.850638e-001 4.460251e-001 1.331305e-001
-2.924540e-002 1.566582e-002 7.098378e-003 -9.641851e-001 -9.778325e-002 2.465471e-001
-2.924540e-002 1.779007e-002 7.098378e-003 -1.309406e-002 -4.533034e-002 -9.988862e-001
-2.924540e-002 1.967770e-002 7.098378e-003 -6.030537e-001 5.234479e-002 -7.959813e-001
-2.924540e-002 2.179254e-002 7.098378e-003 -9.912242e-001 6.667816e-004 1.321902e-001
-2.924540e-002 2.374997e-002 7.098378e-003 -8.517476e-001 -5.069464e-001 1.324065e-001
-2.721261e-002 3.719810e-003 7.098378e-003 -1.155305e-001 9.607957e-001 2.520405e-001
-2.721261e-002 6.271141e-003 7.098378e-003 -3.981841e-001 -6.238284e-001 6.725233e-001
-2.721261e-002 3.082238e-002 7.098378e-003 9.105923e-001 2.495065e-002 4.125519e-001
-2.721261e-002 3.101373e-002 7.098378e-003 9.024545e-001 -4.000792e-002 4.289233e-001
-2.517982e-002 1.852618e-003 7.098378e-003 7.947652e-001 4.821483e-001 3.686206e-001
-2.517982e-002 3.356979e-003 7.098378e-003 3.867773e-001 -1.500073e-001 9.098907e-001
-2.517982e-002 1.205304e-002 7.098378e-003 9.516265e-001 3.017073e-001 -5.813618e-002
-2.517982e-002 1.342386e-002 7.098378e-003 8.641615e-001 -2.325994e-001 -4.462313e-001
-2.517982e-002 2.829028e-002 7.098378e-003 4.932265e-001 6.996704e-001 -5.169032e-001
-2.517982e-002 3.151946e-002 7.098378e-003 1.531049e-001 -8.084558e-001 -5.682940e-001
-2.314703e-002 -2.476143e-002 7.098378e-003 6.200050e-003 3.622709e-001 9.320523e-001
-2.314703e-002 -2.316358e-002 7.098378e-003 1.520009e-002 -1.458788e-001 9.891857e-001
-2.314703e-002 -2.028263e-002 7.098378e-003 2.490832e-001 4.935020e-001 8.333147e-001
-2.314703e-002 -1.747292e-002 7.098378e-003 3.556979e-001 -9.330247e-001 -5.425780e-002
-2.314703e-002 1.576713e-003 7.098378e-003 -6.070873e-001 7.634351e-001 2.204811e-001
-2.314703e-002 3.633526e-003 7.098378e-003 -5.811217e-001 -3.927665e-001 7.127637e-001
-2.314703e-002 1.149201e-002 7.098378e-003 -8.857597e-002 6.082032e-001 7.888240e-001
-2.314703e-002 1.408972e-002 7.098378e-003 3.628454e-001 -8.958246e-001 -2.565962e-001
-2.314703e-002 2.201906e-002 7.098378e-003 7.395552e-001 6.730136e-001 1.052728e-002
-2.314703e-002 2.355817e-002 7.098378e-003 5.647385e-001 -5.072389e-001 6.509832e-001
-2.314703e-002 2.828925e-002 7.098378e-003 -4.982132e-001 7.073501e-001 -5.014374e-001
-2.314703e-002 3.152824e-002 7.098378e-003 -4.954760e-001 -7.115826e-001 -4.981503e-001
-2.111423e-002 -1.277759e-002 7.098378e-003 3.118474e-001 9.200343e-001 2.372512e-001
-2.111423e-002 -9.907715e-003 7.098378e-003 5.827028e-001 -5.748880e-001 -5.744225e-001
-2.111423e-002 1.194929e-002 7.098378e-003 -2.814351e-001 7.804228e-001 5.583320e-001
-2.111423e-002 1.500380e-002 7.098378e-003 2.258653e-001 -8.561566e-001 4.647372e-001
-2.111423e-002 2.265283e-002 7.098378e-003 -6.631202e-001 8.133886e-002 7.440804e-001
-2.111423e-002 2.292178e-002 7.098378e-003 -6.634256e-001 -8.374538e-002 7.435410e-001
-1.908144e-002 -3.286749e-002 7.098378e-003 1.407313e-002 5.967570e-001 8.022986e-001
-1.908144e-002 -3.132420e-002 7.098378e-003 1.041031e-002 -5.907428e-001 8.067927e-001
-1.908144e-002 -2.080808e-002 7.098378e-003 4.970661e-001 8.407729e-001 2.145374e-001
-1.908144e-002 -1.818288e-002 7.098378e-003 -2.020171e-001 -7.442764e-001 6.365860e-001
-1.908144e-002 1.225435e-002 7.098378e-003 1.254310e-001 9.124190e-001 3.895622e-001
-1.908144e-002 1.497846e-002 7.098378e-003 -5.643651e-001 -6.906836e-001 4.521594e-001
-1.908144e-002 3.229025e-002 7.098378e-003 7.650832e-001 4.468832e-001 4.636196e-001
-1.908144e-002 3.361655e-002 7.098378e-003 8.568001e-001 -3.590716e-001 3.700827e-001
-1.704865e-002 -2.486331e-002 7.098378e-003 2.285263e-001 7.819785e-001 5.799012e-001
-1.704865e-002 -1.980250e-002 7.098378e-003 -6.487737e-001 -3.933909e-001 6.514110e-001
-1.704865e-002 1.179240e-002 7.098378e-003 2.746156e-001 5.037017e-001 8.190671e-001
-1.704865e-002 1.347176e-002 7.098378e-003 -4.563479e-002 -3.302937e-001 9.427744e-001
-1.704865e-002 3.256183e-002 7.098378e-003 -3.561490e-001 8.740909e-001 3.303376e-001
-1.704865e-002 3.474256e-002 7.098378e-003 5.775633e-001 -7.278633e-001 3.696425e-001
-1.704865e-002 4.510450e-002 7.098378e-003 5.522249e-001 6.604400e-001 -5.087895e-001
-1.704865e-002 4.579198e-002 7.098378e-003 9.183838e-001 3.924979e-001 -5.016539e-002
-1.704865e-002 5.471399e-002 7.098378e-003 1.576723e-002 9.159119e-001 4.010696e-001
-1.704865e-002 5.713715e-002 7.098378e-003 4.054813e-001 -6.266764e-001 6.654785e-001
-1.501585e-002 1.167230e-002 7.098378e-003 -5.375235e-001 5.433926e-001 6.448201e-001
-1.501585e-002 1.359731e-002 7.098378e-003 -4.065562e-001 -1.742974e-001 8.968459e-001
-1.501585e-002 1.660661e-002 7.098378e-003 8.986043e-004 -3.486566e-002 9.993916e-001
-1.501585e-002 1.677150e-002 7.098378e-003 5.051187e-002 -4.305189e-002 9.977951e-001
-1.501585e-002 2.456743e-002 7.098378e-003 -4.975861e-001 5.517603e-001 6.693047e-001
-1.501585e-002 2.527288e-002 7.098378e-003 -6.829168e-001 1.201641e-001 7.205451e-001
-1.501585e-002 4.224750e-002 7.098378e-003 9.105990e-003 7.215649e-001 6.922870e-001
-1.501585e-002 4.467446e-002 7.098378e-003 -5.136783e-001 -3.941887e-001 7.620695e-001
-1.298306e-002 1.846505e-002 7.098378e-003 1.878867e-002 9.071029e-001 4.204895e-001
-1.298306e-002 2.350605e-002 7.098378e-003 -2.639850e-001 -8.695571e-001 4.173517e-001
-1.095027e-002 -3.654199e-002 7.098378e-003 9.285390e-001 1.653647e-001 3.323700e-001
-1.095027e-002 -3.577783e-002 7.098378e-003 9.479825e-001 -1.231159e-001 2.935499e-001
-1.095027e-002 -2.880831e-002 7.098378e-003 3.099299e-001 5.342055e-001 7.864909e-001
-1.095027e-002 -2.583604e-002 7.098378e-003 4.883281e-001 -7.013447e-001 5.192796e-001
-1.095027e-002 -6.680708e-003 7.098378e-003 6.210935e-001 7.688680e-001 1.519375e-001
-1.095027e-002 -4.670128e-003 7.098378e-003 6.170655e-001 -7.719299e-001 1.528215e-001
-1.095027e-002 5.523982e-003 7.098378e-003 2.558327e-003 8.484948e-001 5.291976e-001
-1.095027e-002 7.527937e-003 7.098378e-003 2.791533e-003 -8.473908e-001 5.309625e-001
-1.095027e-002 1.618284e-002 7.098378e-003 -2.966095e-002 6.073424e-001 7.938863e-001
-1.095027e-002 1.720010e-002 7.098378e-003 -4.799177e-001 -5.069247e-001 7.160351e-001
-8.917477e-003 -3.701141e-002 7.098378e-003 -1.059824e-001 9.591668e-001 2.622339e-001
-8.917477e-003 -3.369050e-002 7.098378e-003 4.990359e-001 -8.174495e-001 2.876445e-001
-8.917477e-003 -2.837909e-002 7.098378e-003 -1.982501e-001 7.413763e-001 -6.411381e-001
-8.917477e-003 -2.565233e-002 7.098378e-003 2.350505e-001 -8.519951e-001 -4.678200e-001
-8.917477e-003 -1.592479e-002 7.098378e-003 8.512114e-001 4.812798e-001 2.093058e-001
-8.917477e-003 -1.520267e-002 7.098378e-003 8.662947e-001 4.392638e-001 2.378670e-001
-8.917477e-003 -1.346216e-002 7.098378e-003 9.045366e-001 2.377552e-001 3.539575e-001
-8.917477e-003 -1.108872e-002 7.098378e-003 3.916358e-001 -9.201060e-001 -5.135296e-003
-8.917477e-003 -6.411204e-003 7.098378e-003 -8.718352e-001 3.852841e-001 3.024227e-001
-8.917477e-003 -4.941519e-003 7.098378e-003 -8.665275e-001 -3.972031e-001 3.022577e-001
-8.917477e-003 4.714002e-002 7.098378e-003 1.669974e-002 8.070071e-001 5.903056e-001
-8.917477e-003 5.013727e-002 7.098378e-003 2.894858e-003 -5.741983e-001 8.187111e-001
-8.917477e-003 6.434678e-002 7.098378e-003 1.810187e-001 5.433602e-001 -8.197511e-001
-8.917477e-003 6.750530e-002 7.098378e-003 2.707999e-001 -8.224398e-001 -5.002601e-001
-6.884683e-003 -3.584959e-002 7.098378e-003 -6.877059e-001 5.436424e-001 4.811586e-001
-6.884683e-003 -3.369631e-002 7.098378e-003 -4.776030e-001 -7.680303e-001 4.266437e-001
-6.884683e-003 -2.841208e-002 7.098378e-003 4.033681e-002 7.779553e-001 -6.270235e-001
-6.884683e-003 -2.533194e-002 7.098378e-003 -1.432241e-002 -8.535879e-001 -5.207520e-001
-6.884683e-003 -1.668072e-002 7.098378e-003 1.510464e-001 9.721873e-001 1.789885e-001
-6.884683e-003 -1.370928e-002 7.098378e-003 2.351789e-001 -9.487173e-001 2.112496e-001
-6.884683e-003 -1.021338e-002 7.098378e-003 -5.460454e-001 2.497842e-002 -8.373832e-001
-6.884683e-003 -9.280711e-003 7.098378e-003 -1.998324e-002 -5.076938e-001 -8.613058e-001
-6.884683e-003 2.068082e-002 7.098378e-003 8.362299e-001 7.724205e-002 5.429118e-001
-6.884683e-003 2.083163e-002 7.098378e-003 8.371079e-001 3.381371e-003 5.470273e-001
-6.884683e-003 5.710079e-002 7.098378e-003 1.931613e-002 9.383209e-001 3.452256e-001
-6.884683e-003 6.223362e-002 7.098378e-003 1.464697e-001 -7.142844e-001 -6.843570e-001
-6.884683e-003 6.530765e-002 7.098378e-003 -9.319140e-001 2.826248e-001 2.272873e-001
-6.884683e-003 6.750827e-002 7.098378e-003 -5.689101e-001 -6.012731e-001 -5.610812e-001
-4.851891e-003 -2.849835e-002 7.098378e-003 -5.850347e-002 8.953309e-001 4.415426e-001
-4.851891e-003 -2.570827e-002 7.098378e-003 1.436389e-002 -7.993888e-001 6.006423e-001
-4.851891e-003 -1.641333e-002 7.098378e-003 -1.403439e-001 7.936484e-001 -5.919678e-001
-4.851891e-003 -1.324701e-002 7.098378e-003 1.291109e-001 -8.042516e-001 -5.800946e-001
-4.851891e-003 -6.217049e-003 7.098378e-003 -3.586194e-002 6.455563e-001 7.628703e-001
-4.851891e-003 -5.130269e-003 7.098378e-003 -2.801389e-002 -6.571600e-001 7.532303e-001
-4.851891e-003 2.094184e-002 7.098378e-003 -2.980950e-002 9.489074e-001 3.141433e-001
-4.851891e-003 2.736768e-002 7.098378e-003 5.227358e-001 -8.091653e-001 2.683259e-001
-4.851891e-003 3.407057e-002 7.098378e-003 7.523859e-001 6.282212e-001 1.981254e-001
-4.851891e-003 3.590457e-002 7.098378e-003 7.543368e-001 -6.219339e-001 2.101765e-001
-4.851891e-003 4.453080e-002 7.098378e-003 5.105010e-001 7.831944e-001 -3.549580e-001
-4.851891e-003 4.804821e-002 7.098378e-003 3.375320e-001 -9.229985e-001 1.847865e-001
-4.851891e-003 5.915452e-002 7.098378e-003 -9.010546e-001 1.002152e-001 4.219686e-001
-4.851891e-003 5.960784e-002 7.098378e-003 -9.578767e-001 5.161836e-002 2.825029e-001
-4.851891e-003 6.270322e-002 7.098378e-003 -2.030413e-001 9.429529e-002 9.746192e-001
-4.851891e-003 6.415515e-002 7.098378e-003 -4.581472e-001 -3.822989e-001 8.024641e-001
-2.819098e-003 -2.826419e-002 7.098378e-003 -6.342506e-001 6.571702e-001 4.072510e-001
-2.819098e-003 -2.292166e-002 7.098378e-003 7.401605e-003 -7.949595e-001 6.066173e-001
-2.819098e-003 -1.638539e-002 7.098378e-003 -5.683052e-001 6.030631e-001 -5.597715e-001
-2.819098e-003 -1.324847e-002 7.098378e-003 -5.119936e-001 -6.941054e-001 -5.060437e-001
-2.819098e-003 1.572749e-002 7.098378e-003 1.364241e-002 9.553112e-001 2.952871e-001
-2.819098e-003 1.766718e-002 7.098378e-003 2.007445e-002 -8.569742e-001 5.149682e-001
-2.819098e-003 2.300033e-002 7.098378e-003 -7.929997e-001 3.603145e-001 4.912484e-001
-2.819098e-003 2.745447e-002 7.098378e-003 -1.900843e-001 -9.315833e-001 3.098719e-001
-2.819098e-003 3.408742e-002 7.098378e-003 -7.634943e-001 5.993935e-001 2.404245e-001
-2.819098e-003 3.588613e-002 7.098378e-003 -5.745622e-001 -4.456403e-001 6.865006e-001
-2.819098e-003 4.289024e-002 7.098378e-003 2.259029e-003 8.633615e-001 -5.045807e-001
-2.819098e-003 4.727108e-002 7.098378e-003 -7.588185e-001 -4.928958e-001 -4.257325e-001
-2.819098e-003 5.643492e-002 7.098378e-003 5.912002e-001 7.597410e-001 2.706952e-001
-2.819098e-003 5.829428e-002 7.098378e-003 6.357223e-001 -5.842023e-002 7.697039e-001
-2.819098e-003 6.066646e-002 7.098378e-003 8.423703e-001 -5.120355e-001 -1.680233e-001
-2.819098e-003 6.212494e-002 7.098378e-003 -5.126566e-001 -5.204987e-001 -6.828355e-001
-7.863049e-004 -2.615640e-002 7.098378e-003 -1.531171e-001 8.898485e-002 9.841935e-001
-7.863049e-004 -2.583991e-002 7.098378e-003 -1.069706e-001 -5.797780e-002 9.925703e-001
-7.863049e-004 -2.019660e-002 7.098378e-003 -5.880108e-002 1.054050e-001 9.926894e-001
-7.863049e-004 -1.960522e-002 7.098378e-003 -6.265954e-002 -1.120167e-001 9.917288e-001
-7.863049e-004 4.411723e-002 7.098378e-003 -6.432250e-001 6.123773e-001 4.596255e-001
-7.863049e-004 4.618574e-002 7.098378e-003 -4.958363e-001 -4.856488e-001 7.199248e-001
-7.863049e-004 5.696164e-002 7.098378e-003 -4.109797e-001 6.741550e-001 6.136861e-001
-7.863049e-004 6.030980e-002 7.098378e-003 -4.188487e-001 -8.921610e-001 1.691582e-001
-7.863049e-004 6.730498e-002 7.098378e-003 6.848511e-001 3.394053e-002 7.278922e-001
-7.863049e-004 6.770739e-002 7.098378e-003 7.221372e-001 -5.832971e-002 6.892862e-001
1.246488e-003 -2.615506e-002 7.098378e-003 -4.111362e-001 7.492272e-001 5.192549e-001
1.246488e-003 -2.320729e-002 7.098378e-003 -1.159122e-002 -4.387396e-001 8.985395e-001
1.246488e-003 -2.438148e-003 7.098378e-003 3.645098e-005 9.691024e-001 2.466585e-001
1.246488e-003 1.496163e-003 7.098378e-003 1.611635e-001 -8.013151e-001 5.761254e-001
1.246488e-003 6.046725e-003 7.098378e-003 7.750983e-001 9.741673e-002 6.242857e-001
1.246488e-003 7.007970e-003 7.098378e-003 6.148268e-001 -1.315016e-001 7.776216e-001
1.246488e-003 1.176486e-002 7.098378e-003 2.272499e-001 9.634176e-001 -1.420705e-001
1.246488e-003 1.535477e-002 7.098378e-003 2.722212e-001 -8.205850e-001 -5.025296e-001
1.246488e-003 2.781299e-002 7.098378e-003 3.082476e-002 -5.372629e-001 8.428514e-001
1.246488e-003 2.913309e-002 7.098378e-003 6.740456e-001 -6.132308e-001 4.118380e-001
1.246488e-003 3.871724e-002 7.098378e-003 7.508612e-001 1.097246e-001 6.512818e-001
1.246488e-003 3.938581e-002 7.098378e-003 7.089629e-001 -1.054338e-001 6.973200e-001
1.246488e-003 5.432662e-002 7.098378e-003 5.339129e-001 5.795461e-001 6.156812e-001
1.246488e-003 5.633338e-002 7.098378e-003 1.260906e-001 -4.208705e-001 8.983146e-001
1.246488e-003 6.654210e-002 7.098378e-003 1.292659e-001 6.252620e-001 7.696348e-001
1.246488e-003 6.845096e-002 7.098378e-003 -5.445083e-001 -8.160688e-001 1.937584e-001
3.279281e-003 -2.853131e-002 7.098378e-003 -5.847263e-003 2.059204e-001 9.785513e-001
3.279281e-003 -2.750481e-002 7.098378e-003 -1.633688e-001 -1.627367e-001 9.730506e-001
3.279281e-003 1.725100e-003 7.098378e-003 -4.231212e-001 7.089519e-001 5.642302e-001
3.279281e-003 9.538485e-003 7.098378e-003 5.266203e-001 -5.999647e-001 6.022569e-001
3.279281e-003 1.599287e-002 7.098378e-003 2.608988e-001 9.408587e-001 2.161405e-001
3.279281e-003 1.933114e-002 7.098378e-003 4.428097e-001 -8.669033e-001 2.289066e-001
3.279281e-003 2.880188e-002 7.098378e-003 -4.208562e-001 6.408843e-001 6.419870e-001
3.279281e-003 2.911966e-002 7.098378e-003 -3.277736e-001 5.127144e-001 7.935290e-001
3.279281e-003 3.617940e-002 7.098378e-003 4.128084e-001 7.686039e-001 4.887098e-001
3.279281e-003 4.011880e-002 7.098378e-003 3.050667e-001 -6.054834e-001 7.350674e-001
3.279281e-003 4.398613e-002 7.098378e-003 2.493723e-001 1.025477e-001 9.629628e-001
3.279281e-003 4.578263e-002 7.098378e-003 4.821892e-003 -2.564299e-001 9.665508e-001
3.279281e-003 4.869733e-002 7.098378e-003 6.206096e-001 7.090797e-001 3.347383e-001
3.279281e-003 5.304903e-002 7.098378e-003 6.938441e-001 -5.928493e-001 -4.087909e-001
3.279281e-003 6.072661e-002 7.098378e-003 6.765321e-001 1.285012e-001 -7.251149e-001
3.279281e-003 6.625275e-002 7.098378e-003 -5.013287e-001 -8.652422e-001 -5.027578e-003
5.312074e-003 3.930550e-003 7.098378e-003 2.390888e-001 9.501483e-001 2.001366e-001
5.312074e-003 8.070455e-003 7.098378e-003 -7.141121e-001 -3.833537e-001 5.857337e-001
5.312074e-003 1.609894e-002 7.098378e-003 -5.837628e-001 7.837621e-001 2.119858e-001
5.312074e-003 1.933775e-002 7.098378e-003 -5.034011e-001 -6.418152e-001 5.784986e-001
5.312074e-003 2.225171e-002 7.098378e-003 5.107799e-001 6.494479e-001 5.633129e-001
5.312074e-003 2.521535e-002 7.098378e-003 1.391493e-003 -8.459340e-001 5.332857e-001
5.312074e-003 3.648113e-002 7.098378e-003 -4.207495e-001 7.545073e-001 5.036752e-001
5.312074e-003 4.011363e-002 7.098378e-003 -2.384736e-001 -5.222377e-001 8.187785e-001
5.312074e-003 4.853695e-002 7.098378e-003 -4.634143e-001 7.836358e-001 4.137174e-001
5.312074e-003 5.300187e-002 7.098378e-003 -2.968629e-001 -7.234914e-001 6.232436e-001
5.312074e-003 6.072136e-002 7.098378e-003 -6.959009e-001 1.670107e-001 -6.984478e-001
5.312074e-003 6.356767e-002 7.098378e-003 -6.109393e-001 -5.870373e-001 -5.311688e-001
7.344866e-003 -2.607815e-002 7.098378e-003 2.223376e-002 6.582716e-001 7.524521e-001
7.344866e-003 -2.169114e-002 7.098378e-003 5.277354e-001 -7.181641e-001 4.535808e-001
7.344866e-003 1.795655e-003 7.098378e-003 1.038999e-002 9.999291e-001 -5.808215e-003
7.344866e-003 6.590712e-003 7.098378e-003 -1.620652e-001 -9.205707e-001 3.553652e-001
7.344866e-003 9.911530e-003 7.098378e-003 1.052636e-001 1.038736e-001 9.890045e-001
7.344866e-003 1.123422e-002 7.098378e-003 5.421168e-001 -6.786158e-001 4.955703e-001
7.344866e-003 2.880409e-002 7.098378e-003 1.759041e-001 7.666525e-001 6.174963e-001
7.344866e-003 3.179460e-002 7.098378e-003 -1.765736e-001 -5.998505e-001 7.803853e-001
7.344866e-003 4.154230e-002 7.098378e-003 -7.578948e-003 6.040151e-001 7.969369e-001
7.344866e-003 4.412651e-002 7.098378e-003 -6.593828e-003 -7.813736e-001 6.240288e-001
9.377659e-003 -2.409280e-002 7.098378e-003 -6.501124e-001 5.328155e-001 5.417209e-001
9.377659e-003 -2.182877e-002 7.098378e-003 -6.148204e-001 -6.051399e-001 5.057684e-001
9.377659e-003 6.626619e-003 7.098378e-003 -7.460817e-001 1.094798e-001 6.567925e-001
9.377659e-003 9.656877e-003 7.098378e-003 4.249550e-001 8.403702e-003 9.051754e-001
9.377659e-003 1.122608e-002 7.098378e-003 2.694357e-001 2.168723e-001 9.382808e-001
9.377659e-003 1.632293e-002 7.098378e-003 4.922123e-001 -8.176890e-001 2.985159e-001
9.377659e-003 2.865036e-002 7.098378e-003 -5.567577e-001 7.798845e-002 8.270058e-001
9.377659e-003 2.911822e-002 7.098378e-003 -7.014028e-001 -8.734304e-002 7.073933e-001
1.141045e-002 7.590206e-003 7.098378e-003 -4.951351e-001 7.150285e-001 4.935336e-001
1.141045e-002 1.615349e-002 7.098378e-003 -2.515070e-001 -5.099430e-001 8.226192e-001
1.141045e-002 1.787698e-002 7.098378e-003 1.630231e-001 -4.406535e-001 8.827503e-001
1.141045e-002 1.914544e-002 7.098378e-003 5.102789e-001 -2.581123e-001 8.203618e-001
1.141045e-002 2.172488e-002 7.098378e-003 6.501494e-002 6.654122e-001 -7.436394e-001
1.141045e-002 2.383138e-002 7.098378e-003 -4.689631e-001 -6.843143e-001 -5.583793e-001
1.141045e-002 2.677296e-002 7.098378e-003 1.621066e-002 -1.392818e-001 9.901201e-001
1.141045e-002 2.692969e-002 7.098378e-003 -5.682632e-002 -1.408135e-001 9.884039e-001
1.344324e-002 3.511977e-004 7.098378e-003 -4.124252e-001 4.944298e-001 -7.651435e-001
1.344324e-002 6.000232e-004 7.098378e-003 -3.628948e-001 4.048030e-001 -8.393103e-001
1.344324e-002 1.183236e-002 7.098378e-003 -6.409698e-001 4.246498e-001 6.393984e-001
1.344324e-002 1.406154e-002 7.098378e-003 -9.243624e-001 -2.379217e-001 2.982406e-001
1.344324e-002 1.968632e-002 7.098378e-003 -6.757374e-001 1.297737e-001 7.256292e-001
1.344324e-002 2.135957e-002 7.098378e-003 -6.010110e-001 -7.992146e-001 6.458703e-003
1.344324e-002 4.658251e-002 7.098378e-003 -2.290090e-002 4.353913e-001 8.999500e-001
1.344324e-002 4.777854e-002 7.098378e-003 -4.839423e-002 -9.987716e-001 1.064143e-002
1.547604e-002 1.858719e-003 7.098378e-003 -6.406609e-001 7.248125e-001 2.533780e-001
1.547604e-002 3.440368e-003 7.098378e-003 -3.267939e-001 -8.443566e-001 -4.245794e-001
1.547604e-002 2.404738e-002 7.098378e-003 4.496320e-001 8.374389e-001 3.106884e-001
1.547604e-002 2.712028e-002 7.098378e-003 4.826858e-001 -7.944579e-001 3.685797e-001
1.750883e-002 2.455151e-002 7.098378e-003 -7.002797e-001 5.582471e-001 4.449365e-001
1.750883e-002 2.709701e-002 7.098378e-003 -6.036564e-001 -6.824201e-001 4.121913e-001
1.954162e-002 1.140765e-002 7.098378e-003 7.981199e-001 5.296084e-001 -2.872621e-001
1.954162e-002 1.879311e-002 7.098378e-003 4.325483e-001 -7.611817e-001 4.832230e-001
2.157442e-002 1.216830e-002 7.098378e-003 -8.367310e-001 3.314025e-001 -4.359514e-001
2.157442e-002 1.516713e-002 7.098378e-003 -6.897235e-001 -3.043957e-001 -6.569815e-001
-6.380288e-002 -5.671711e-003 6.980007e-003 7.410666e-001 1.730158e-002 6.712086e-001
-6.380288e-002 -1.606125e-003 4.418496e-003 6.087484e-001 7.585229e-003 7.933270e-001
-6.380288e-002 4.266677e-004 7.749013e-003 7.316855e-001 -5.101749e-001 4.520597e-001
-6.177009e-002 -5.671711e-003 4.493745e-003 6.995772e-001 5.189043e-001 4.912536e-001
-6.177009e-002 -1.606125e-003 3.934248e-003 8.520016e-003 -1.070212e-001 9.942202e-001
-6.177009e-002 4.266677e-004 5.487652e-003 5.286595e-001 -5.470703e-001 6.490248e-001
-6.177009e-002 2.459460e-003 7.508369e-003 6.073385e-001 -6.619353e-001 4.392967e-001
-5.973730e-002 -5.671711e-003 6.284073e-003 -6.780858e-001 5.832510e-001 -4.472336e-001
-5.973730e-002 -5.671711e-003 7.224005e-003 -7.340373e-001 3.512700e-001 -5.812045e-001
-5.973730e-002 -1.606125e-003 6.267746e-003 -6.430789e-001 5.143503e-001 5.673565e-001
-5.973730e-002 4.266677e-004 4.872980e-003 -2.708809e-001 4.869741e-001 8.303492e-001
-5.973730e-002 2.459460e-003 4.633155e-003 -1.358088e-001 -6.478513e-001 7.495629e-001
-5.770450e-002 -7.704503e-003 6.080948e-003 6.444987e-001 2.926883e-001 7.063674e-001
-5.770450e-002 -5.671711e-003 4.035256e-003 -5.717523e-001 5.971101e-001 5.626357e-001
-5.770450e-002 -5.671711e-003 5.823830e-003 -4.712514e-001 -8.439049e-001 -2.564109e-001
-5.770450e-002 -1.606125e-003 7.387822e-003 -7.370764e-001 2.854489e-002 6.752064e-001
-5.567171e-002 -7.704503e-003 2.557138e-003 1.207670e-002 3.415709e-002 9.993435e-001
-5.567171e-002 -5.671711e-003 7.199143e-003 6.129017e-001 -6.608667e-001 4.331358e-001
-5.363892e-002 -7.704503e-003 4.251425e-003 -2.626846e-002 5.436214e-001 8.389194e-001
-5.363892e-002 -5.671711e-003 1.750800e-003 6.455539e-002 2.290607e-001 9.712691e-001
-5.160613e-002 -7.704503e-003 2.554462e-003 5.083788e-001 3.507201e-002 8.604191e-001
-5.160613e-002 -5.671711e-003 4.304754e-003 -6.101771e-002 -5.264088e-001 8.480393e-001
-4.957333e-002 -7.704503e-003 1.441231e-003 3.951700e-001 8.693674e-001 2.967169e-001
-4.957333e-002 -7.704503e-003 7.531758e-003 -1.977667e-001 5.577183e-001 -8.061257e-001
-4.957333e-002 -5.671711e-003 3.862569e-003 2.973097e-001 -9.351659e-001 1.925401e-001
-4.957333e-002 -5.671711e-003 7.511283e-003 -3.900875e-001 -5.448286e-001 -7.422894e-001
-4.957333e-002 4.266677e-004 2.035039e-003 7.323406e-001 5.624891e-001 3.837749e-001
-4.957333e-002 2.459460e-003 3.606614e-003 5.844919e-001 -7.340043e-001 3.458424e-001
-4.754054e-002 -7.704503e-003 4.362011e-003 -2.048002e-001 8.994727e-001 3.860127e-001
-4.754054e-002 -5.671711e-003 3.571383e-003 -5.696506e-001 -7.680506e-001 2.925687e-001
-4.754054e-002 -5.671711e-003 7.508253e-003 2.922720e-001 -6.564355e-001 -6.954635e-001
-4.754054e-002 4.266677e-004 1.715678e-003 -5.147524e-001 6.748422e-001 5.287891e-001
-4.754054e-002 4.266677e-004 4.586138e-003 -4.548953e-001 8.874147e-001 7.460175e-002
-4.754054e-002 4.266677e-004 5.439064e-003 -4.189609e-001 8.966227e-001 1.433160e-001
-4.754054e-002 2.459460e-003 3.567941e-003 -4.047251e-001 -8.292050e-001 3.855083e-001
-4.550775e-002 -7.704503e-003 4.421211e-003 -8.177711e-002 5.204584e-001 8.499621e-001
-4.550775e-002 -5.671711e-003 4.727257e-003 -6.509445e-002 -6.249214e-001 7.779691e-001
-4.550775e-002 4.266677e-004 6.195789e-003 1.264681e-001 7.871739e-001 6.036249e-001
-4.550775e-002 2.459460e-003 7.747389e-003 -3.874917e-001 -7.911831e-001 4.731589e-001
-4.347495e-002 -9.737296e-003 4.268626e-003 5.604728e-001 3.271298e-001 7.608260e-001
-4.347495e-002 -7.704503e-003 4.621556e-003 -6.325429e-001 -1.753447e-001 7.544162e-001
-4.347495e-002 -5.671711e-003 4.637395e-003 -4.987859e-001 -5.317227e-001 6.844586e-001
-4.347495e-002 -1.606125e-003 2.973322e-003 2.750866e-002 4.649754e-001 8.848962e-001
-4.347495e-002 4.266677e-004 4.322766e-003 -5.942907e-001 -6.023901e-001 5.328646e-001
-4.347495e-002 2.459460e-003 7.856038e-003 -5.072473e-001 -7.704104e-001 3.862229e-001
-4.144216e-002 -9.737296e-003 2.677320e-003 5.106274e-001 1.670790e-002 8.596397e-001
-4.144216e-002 -3.638918e-003 2.553604e-003 1.310369e-001 2.868263e-002 9.909625e-001
-4.144216e-002 -3.638918e-003 7.329561e-003 6.135476e-001 4.886607e-001 -6.202983e-001
-4.144216e-002 -1.606125e-003 4.791096e-003 -1.625470e-001 -7.307603e-001 6.629992e-001
-4.144216e-002 -1.606125e-003 7.374017e-003 -2.308581e-001 -5.915883e-001 -7.724816e-001
-3.940937e-002 -9.737296e-003 2.869292e-003 -5.412791e-001 5.295689e-002 8.391737e-001
-3.940937e-002 -3.638918e-003 4.675245e-003 -6.880060e-002 7.291954e-001 6.808381e-001
-3.940937e-002 -1.606125e-003 3.662454e-003 1.374673e-002 -9.080368e-001 4.186648e-001
-3.940937e-002 -1.606125e-003 7.363844e-003 2.342419e-001 -6.973205e-001 -6.774030e-001
-3.737658e-002 -9.737296e-003 4.531885e-003 -3.219988e-001 8.846416e-001 3.372328e-001
-3.737658e-002 -7.704503e-003 2.635675e-003 3.472884e-003 1.513686e-001 9.884713e-001
-3.737658e-002 -5.671711e-003 2.684266e-003 -1.010419e-001 -5.028137e-001 8.584689e-001
-3.737658e-002 -3.638918e-003 4.509191e-003 3.700663e-002 -3.269727e-001 9.443089e-001
-3.737658e-002 -1.606125e-003 4.584053e-003 -5.473458e-002 -6.157538e-001 7.860352e-001
-3.534378e-002 -9.737296e-003 7.435120e-003 -6.043508e-001 7.652996e-001 2.215322e-001
-3.534378e-002 -7.704503e-003 4.273803e-003 -2.792316e-001 2.141977e-001 9.360284e-001
-3.534378e-002 -5.671711e-003 4.296008e-003 -2.508726e-001 -1.019279e-001 9.626389e-001
-3.534378e-002 -3.638918e-003 4.533115e-003 -1.181093e-002 -1.531743e-001 9.881286e-001
-3.534378e-002 -1.606125e-003 4.579145e-003 -5.997992e-003 -6.159611e-001 7.877537e-001
-3.534378e-002 1.262342e-002 7.344152e-003 6.864018e-001 6.851408e-001 2.437921e-001
-3.534378e-002 1.465622e-002 1.964312e-003 7.991247e-001 -3.630546e-001 4.791566e-001
-3.534378e-002 2.278739e-002 6.786638e-003 9.094062e-001 1.518910e-002 4.156317e-001
-3.331099e-002 -9.737296e-003 4.343822e-003 -4.618066e-001 7.841698e-001 4.145027e-001
-3.331099e-002 -9.737296e-003 5.798582e-003 -4.218323e-001 8.615276e-001 -2.825382e-001
-3.331099e-002 -7.704503e-003 4.264364e-003 -2.545722e-002 2.447456e-002 9.993762e-001
-3.331099e-002 -5.671711e-003 4.291106e-003 -7.349703e-003 -3.929004e-002 9.992008e-001
-3.331099e-002 -3.638918e-003 4.536040e-003 -4.586921e-002 -4.937728e-001 8.683804e-001
-3.331099e-002 -1.606125e-003 4.662131e-003 -6.951890e-002 -9.447435e-001 3.203545e-001
-3.331099e-002 8.557838e-003 5.786175e-003 6.178927e-001 6.384295e-001 4.589296e-001
-3.331099e-002 1.059063e-002 7.359846e-003 7.487693e-001 3.123110e-001 5.846421e-001
-3.331099e-002 1.262342e-002 3.612295e-003 -1.660104e-001 5.467872e-001 8.206487e-001
-3.331099e-002 1.465622e-002 2.371253e-003 -1.501612e-001 -2.072124e-001 9.667029e-001
-3.331099e-002 2.278739e-002 4.985460e-003 4.821450e-001 7.694911e-001 4.188314e-001
-3.331099e-002 2.482018e-002 3.441693e-003 2.148372e-001 -3.979414e-001 8.919011e-001
-3.331099e-002 2.685297e-002 4.756391e-003 5.054613e-001 -6.077454e-001 6.124985e-001
-3.127820e-002 -7.704503e-003 4.327303e-003 -4.884761e-001 4.708858e-001 7.346139e-001
-3.127820e-002 -5.671711e-003 4.311420e-003 -5.420155e-001 -2.167140e-002 8.400890e-001
-3.127820e-002 -3.638918e-003 4.646764e-003 -9.164518e-001 -2.515930e-001 3.111544e-001
-3.127820e-002 -1.606125e-003 4.820288e-003 -6.909571e-001 -6.897542e-001 2.163731e-001
-3.127820e-002 6.525046e-003 6.490620e-003 6.250058e-001 6.043745e-001 4.940640e-001
-3.127820e-002 8.557838e-003 7.377584e-003 -5.944467e-001 -1.245254e-001 7.944348e-001
-3.127820e-002 1.059063e-002 7.394705e-003 -3.622446e-001 3.900158e-001 8.465616e-001
-3.127820e-002 1.262342e-002 4.676499e-003 -6.387348e-001 3.489913e-001 6.857281e-001
-3.127820e-002 1.465622e-002 2.512433e-003 1.622237e-001 2.736548e-001 9.480488e-001
-3.127820e-002 2.075460e-002 5.019518e-003 3.142496e-002 9.064974e-001 4.210402e-001
-3.127820e-002 2.278739e-002 2.124849e-003 5.235695e-001 -4.983726e-001 6.910135e-001
-3.127820e-002 2.482018e-002 4.706400e-003 -6.807656e-001 -2.520659e-001 6.877652e-001
-3.127820e-002 2.685297e-002 4.735529e-003 -5.244061e-001 -5.436639e-001 6.553074e-001
-2.924540e-002 4.492254e-003 5.376121e-003 7.009711e-001 4.250589e-001 5.726818e-001
-2.924540e-002 6.525046e-003 7.226478e-003 -8.189902e-002 -6.792846e-001 7.292907e-001
-2.924540e-002 8.557838e-003 7.869078e-003 -8.346351e-002 -1.517598e-001 9.848872e-001
-2.924540e-002 1.059063e-002 7.877618e-003 -7.581589e-002 -4.224699e-001 9.032005e-001
-2.924540e-002 1.465622e-002 1.703492e-003 -7.451841e-001 -3.941867e-002 6.656927e-001
-2.924540e-002 1.872180e-002 4.328054e-003 -5.912624e-002 2.368288e-002 9.979696e-001
-2.924540e-002 2.278739e-002 1.723775e-003 -8.085570e-001 -2.532071e-002 5.878729e-001
-2.721261e-002 4.492254e-003 4.300291e-003 -2.188785e-001 5.037991e-001 8.356307e-001
-2.721261e-002 6.525046e-003 7.279277e-003 -2.855258e-001 -6.562166e-001 6.984661e-001
-2.721261e-002 8.557838e-003 7.885695e-003 -1.017414e-002 -1.428752e-001 9.896885e-001
-2.721261e-002 1.059063e-002 7.887494e-003 1.536388e-003 -4.285976e-001 9.034942e-001
-2.721261e-002 3.091856e-002 6.800870e-003 9.031561e-001 -6.928365e-003 4.292564e-001
-2.517982e-002 2.459460e-003 5.514541e-003 8.588178e-001 2.401409e-001 4.525088e-001
-2.517982e-002 4.492254e-003 7.869252e-003 -3.306441e-001 -2.498673e-001 9.100774e-001
-2.517982e-002 6.525046e-003 7.890616e-003 -1.433871e-001 -9.960580e-003 9.896166e-001
-2.517982e-002 8.557838e-003 7.898374e-003 -1.448516e-003 6.115118e-003 9.999803e-001
-2.517982e-002 1.059063e-002 7.872760e-003 2.588125e-003 -1.027717e-001 9.947016e-001
-2.517982e-002 1.262342e-002 6.187527e-003 9.892869e-001 1.458723e-001 -5.712353e-003
-2.517982e-002 1.262342e-002 7.474560e-003 8.656701e-001 -8.482318e-002 -4.933764e-001
-2.517982e-002 2.888577e-002 2.302320e-003 5.635576e-001 5.626373e-001 6.048488e-001
-2.517982e-002 2.888577e-002 7.694282e-003 4.240142e-001 4.277543e-001 -7.982720e-001
-2.517982e-002 3.091856e-002 3.814827e-003 3.153895e-001 -8.270432e-001 4.653266e-001
-2.517982e-002 3.091856e-002 7.703578e-003 -6.921674e-002 -4.759643e-001 -8.767366e-001
-2.314703e-002 -2.396685e-002 6.303786e-003 6.206521e-003 6.725247e-003 9.999581e-001
-2.314703e-002 -1.990126e-002 6.717780e-003 2.466361e-001 5.731115e-001 7.814819e-001
-2.314703e-002 -1.786847e-002 4.271940e-003 3.584434e-001 2.465243e-001 9.004133e-001
-2.314703e-002 2.459460e-003 2.098528e-003 8.276527e-002 5.038818e-001 8.597983e-001
-2.314703e-002 4.492254e-003 7.891545e-003 -4.199587e-001 -3.574804e-001 8.341718e-001
-2.314703e-002 6.525046e-003 7.892638e-003 -4.381325e-001 5.266423e-004 8.989102e-001
-2.314703e-002 8.557838e-003 7.889885e-003 -4.343342e-001 3.862795e-003 9.007435e-001
-2.314703e-002 1.059063e-002 7.880275e-003 -1.569339e-001 3.754710e-001 9.134513e-001
-2.314703e-002 1.262342e-002 2.721002e-003 -2.481126e-001 -1.763206e-001 9.525498e-001
-2.314703e-002 2.278739e-002 6.329953e-003 8.369671e-001 4.012179e-003 5.472385e-001
-2.314703e-002 2.278739e-002 7.872535e-003 6.413718e-001 4.121852e-001 -6.471055e-001
-2.314703e-002 2.888577e-002 3.825661e-003 -7.221506e-001 5.609947e-001 4.047016e-001
-2.314703e-002 2.888577e-002 7.689533e-003 -4.330234e-001 4.348399e-001 -7.895600e-001
-2.314703e-002 3.091856e-002 3.841631e-003 -6.274258e-001 -6.319153e-001 4.549944e-001
-2.314703e-002 3.091856e-002 7.710617e-003 -4.265698e-001 -4.260416e-001 -7.978262e-001
-2.111423e-002 -2.193405e-002 4.781487e-003 5.196435e-002 9.432121e-001 3.281017e-001
-2.111423e-002 -2.193405e-002 5.353796e-003 5.069908e-002 9.623753e-001 -2.669520e-001
-2.111423e-002 -1.990126e-002 7.808124e-003 1.959729e-001 4.860739e-001 8.516611e-001
-2.111423e-002 -1.786847e-002 7.826553e-003 -1.295798e-001 -2.349529e-001 9.633308e-001
-2.111423e-002 -1.177009e-002 1.270199e-003 7.605460e-001 4.201287e-001 4.950370e-001
-2.111423e-002 -1.177009e-002 4.743154e-003 8.045618e-001 5.021722e-001 3.170227e-001
-2.111423e-002 -1.177009e-002 5.175350e-003 8.137651e-001 4.857436e-001 3.191230e-001
-2.111423e-002 1.262342e-002 4.700101e-003 -2.536987e-001 5.276109e-001 8.107180e-001
-2.111423e-002 1.465622e-002 4.810623e-003 2.127579e-001 -6.502144e-001 7.293527e-001
-2.111423e-002 2.278739e-002 6.681484e-003 -4.561454e-001 1.204845e-003 8.899044e-001
-1.908144e-002 -3.209802e-002 2.991204e-003 5.335141e-001 2.985023e-002 8.452643e-001
-1.908144e-002 -3.209802e-002 3.118344e-003 5.375443e-001 3.100360e-002 8.426654e-001
-1.908144e-002 -3.209802e-002 5.955597e-003 1.531820e-002 9.156601e-003 9.998407e-001
-1.908144e-002 -1.990126e-002 4.011288e-003 3.835118e-002 1.956123e-001 9.799311e-001
-1.908144e-002 -1.786847e-002 7.412605e-003 -2.118266e-001 -7.289224e-001 6.510004e-001
-1.908144e-002 -1.177009e-002 3.263603e-003 -7.011359e-001 6.045247e-001 3.780985e-001
-1.908144e-002 -1.177009e-002 6.862608e-003 -5.066855e-001 4.736610e-001 -7.203576e-001
-1.908144e-002 1.262342e-002 4.834157e-003 -5.640928e-001 5.293921e-001 6.336746e-001
-1.908144e-002 1.465622e-002 4.814127e-003 -5.426718e-001 -5.382360e-001 6.448328e-001
-1.908144e-002 2.278739e-002 7.103740e-003 -8.362414e-001 4.342302e-003 5.483443e-001
-1.908144e-002 3.295135e-002 4.709642e-003 6.989367e-001 1.517133e-001 6.989067e-001
-1.704865e-002 -3.413081e-002 3.567228e-003 1.852790e-002 2.703898e-001 9.625726e-001
-1.704865e-002 -3.413081e-002 5.793124e-003 3.255756e-002 4.158028e-002 -9.986045e-001
-1.704865e-002 -2.396685e-002 6.195623e-003 1.252444e-002 4.852566e-001 8.742821e-001
-1.704865e-002 -2.193405e-002 6.092693e-003 -1.676262e-003 -4.284745e-001 9.035523e-001
-1.704865e-002 -1.990126e-002 6.993358e-003 -6.684391e-001 -3.961610e-001 6.294804e-001
-1.704865e-002 -9.737296e-003 2.677293e-003 -5.013281e-001 5.076880e-001 7.006590e-001
-1.704865e-002 -9.737296e-003 4.492195e-003 -6.888816e-001 7.129256e-001 1.310694e-001
-1.704865e-002 1.262342e-002 6.265674e-003 -3.976855e-002 1.397971e-002 9.991111e-001
-1.704865e-002 2.482018e-002 7.946812e-003 8.778885e-001 -5.185307e-002 4.760493e-001
-1.704865e-002 3.295135e-002 5.076251e-003 -1.512335e-001 8.763865e-001 4.572473e-001
-1.704865e-002 3.498415e-002 7.242157e-003 5.845052e-001 -7.480158e-001 3.143660e-001
-1.704865e-002 4.514811e-002 6.908994e-003 5.695556e-001 6.736838e-001 -4.709104e-001
-1.704865e-002 4.514811e-002 7.143552e-003 5.373380e-001 6.594161e-001 -5.257741e-001
-1.704865e-002 4.718090e-002 7.189336e-003 3.647130e-001 -5.048795e-001 7.823561e-001
-1.704865e-002 5.531207e-002 4.688661e-003 9.791119e-003 5.129246e-001 8.583779e-001
-1.704865e-002 5.734487e-002 7.384458e-003 4.736061e-001 -6.591215e-001 5.841714e-001
-1.501585e-002 -1.380288e-002 7.866582e-003 -7.866843e-001 -1.193999e-001 6.056991e-001
-1.501585e-002 1.262342e-002 6.146907e-003 -4.169130e-001 1.439694e-002 9.088323e-001
-1.501585e-002 1.668901e-002 6.750829e-003 3.994114e-003 3.582559e-003 9.999856e-001
-1.501585e-002 2.482018e-002 6.464371e-003 -6.009918e-001 4.130251e-001 6.842653e-001
-1.501585e-002 3.295135e-002 7.242113e-003 -7.449749e-001 5.883367e-001 3.144398e-001
-1.501585e-002 3.498415e-002 7.253679e-003 -6.638499e-001 -6.649404e-001 3.422827e-001
-1.501585e-002 4.311532e-002 2.928991e-003 9.627604e-003 4.969072e-001 -8.677503e-001
-1.501585e-002 4.311532e-002 3.068044e-003 9.087618e-003 4.797369e-001 -8.773654e-001
-1.501585e-002 4.311532e-002 6.219359e-003 9.515683e-003 4.598919e-001 8.879240e-001
-1.501585e-002 4.514811e-002 7.652021e-003 -4.038691e-001 -6.931723e-001 5.969940e-001
-1.298306e-002 1.872180e-002 5.945832e-003 -9.113043e-003 4.733690e-001 8.808171e-001
-1.298306e-002 2.075460e-002 6.849649e-003 1.087607e-002 2.571537e-001 9.663093e-001
-1.298306e-002 2.278739e-002 4.762989e-003 3.980395e-001 3.115628e-002 9.168391e-001
-1.298306e-002 3.904973e-002 4.939403e-003 4.483363e-002 3.760654e-002 9.982864e-001
-1.298306e-002 3.904973e-002 5.191880e-003 4.625519e-002 3.843565e-002 -9.981900e-001
-1.095027e-002 -3.616361e-002 5.733147e-003 9.195063e-001 1.500678e-002 3.927888e-001
-1.095027e-002 -2.803243e-002 6.323079e-003 5.473590e-001 3.037648e-001 7.798237e-001
-1.095027e-002 -2.599964e-002 6.931277e-003 5.168454e-001 -6.608863e-001 5.441508e-001
-1.095027e-002 -1.583567e-002 1.902623e-003 -7.166124e-002 -6.610730e-002 9.952359e-001
-1.095027e-002 -1.583567e-002 3.427859e-003 1.780936e-001 -1.753773e-001 -9.682590e-001
-1.095027e-002 -5.671711e-003 2.565368e-003 2.028016e-003 -6.843190e-003 9.999745e-001
-1.095027e-002 6.525046e-003 6.096988e-003 2.053038e-003 1.729787e-003 9.999964e-001
-1.095027e-002 1.668901e-002 5.146436e-003 -8.567170e-003 -4.691719e-003 9.999523e-001
-1.095027e-002 2.482018e-002 3.225165e-003 -4.654076e-002 -5.938970e-001 8.031938e-001
-1.095027e-002 2.482018e-002 5.557041e-003 -7.035594e-002 -6.140236e-001 -7.861457e-001
-8.917477e-003 -3.616361e-002 3.255258e-003 5.507210e-001 5.787662e-001 6.014449e-001
-8.917477e-003 -3.413081e-002 4.346527e-003 5.500001e-001 -7.246733e-001 4.151487e-001
-8.917477e-003 -2.803243e-002 4.632130e-003 6.907521e-001 3.813668e-001 6.143460e-001
-8.917477e-003 -2.803243e-002 7.448323e-003 -3.393492e-001 5.328891e-001 -7.751589e-001
-8.917477e-003 -2.599964e-002 6.034489e-003 5.489852e-001 -8.356126e-001 -1.915127e-002
-8.917477e-003 -2.599964e-002 7.449703e-003 7.615035e-002 -6.796080e-001 -7.296122e-001
-8.917477e-003 -1.583567e-002 6.493210e-003 8.394723e-001 4.470551e-001 3.089142e-001
-8.917477e-003 -1.380288e-002 7.751239e-003 9.132801e-001 -9.029445e-002 3.971983e-001
-8.917477e-003 -1.177009e-002 6.417419e-003 4.517484e-002 -8.651057e-001 4.995512e-001
-8.917477e-003 -1.177009e-002 7.776355e-003 2.359142e-002 -7.047703e-001 -7.090432e-001
-8.917477e-003 -5.671711e-003 4.791164e-003 -7.259675e-001 3.043295e-002 6.870554e-001
-8.917477e-003 1.872180e-002 2.937802e-003 -5.838343e-003 -8.337501e-003 -9.999482e-001
-8.917477e-003 1.872180e-002 3.064814e-003 -5.479345e-003 -7.958582e-003 -9.999533e-001
-8.917477e-003 4.718090e-002 7.057441e-003 1.688665e-002 7.995154e-001 6.004082e-001
-8.917477e-003 4.921370e-002 6.175142e-003 3.409923e-003 -2.794239e-001 9.601618e-001
-8.917477e-003 6.344324e-002 4.110855e-003 1.208564e-002 6.225531e-001 7.824842e-001
-8.917477e-003 6.344324e-002 6.046073e-003 4.752105e-002 7.734866e-001 -6.320286e-001
-8.917477e-003 6.547604e-002 4.790566e-003 3.531232e-001 -3.977115e-001 8.468350e-001
-8.917477e-003 6.547604e-002 7.868182e-003 4.180209e-001 1.417420e-001 -8.973114e-001
-6.884683e-003 -3.616361e-002 2.173757e-003 -6.343537e-001 3.383042e-001 6.950868e-001
-6.884683e-003 -3.616361e-002 6.326542e-003 -6.333937e-001 7.389478e-001 2.297140e-001
-6.884683e-003 -3.616361e-002 7.200690e-003 -6.294265e-001 6.397357e-001 4.410902e-001
-6.884683e-003 -3.413081e-002 4.555985e-003 -4.455547e-001 -7.091228e-001 5.464668e-001
-6.884683e-003 -2.803243e-002 2.855839e-003 2.018798e-003 1.556478e-002 9.998768e-001
-6.884683e-003 -2.803243e-002 7.482194e-003 2.112556e-001 5.855525e-001 -7.826234e-001
-6.884683e-003 -2.599964e-002 4.700588e-003 7.400515e-002 -6.941463e-001 7.160196e-001
-6.884683e-003 -2.599964e-002 7.774656e-003 2.937897e-001 -4.026397e-001 -8.669307e-001
-6.884683e-003 -1.583567e-002 4.383916e-003 3.404665e-001 3.225459e-001 8.832026e-001
-6.884683e-003 -1.380288e-002 6.506775e-003 2.880919e-001 -9.041941e-001 3.153349e-001
-6.884683e-003 -9.737296e-003 6.076308e-003 -1.795470e-001 -6.285912e-001 -7.567271e-001
-6.884683e-003 -9.737296e-003 7.553077e-003 -1.046178e-002 -3.556447e-002 -9.993126e-001
-6.884683e-003 2.075460e-002 6.778024e-003 8.377731e-001 3.628837e-002 5.448114e-001
-6.884683e-003 4.108252e-002 7.197316e-003 -2.081087e-002 1.010710e-001 9.946615e-001
-6.884683e-003 5.734487e-002 6.458365e-003 1.719748e-002 8.636923e-001 5.037259e-001
-6.884683e-003 5.937766e-002 5.522620e-003 6.073790e-001 1.801859e-001 7.737079e-001
-6.884683e-003 5.937766e-002 7.950801e-003 5.305833e-001 -2.076535e-001 -8.218037e-001
-6.884683e-003 6.141045e-002 2.530413e-003 -6.495797e-001 4.362570e-001 6.226766e-001
-6.884683e-003 6.141045e-002 4.814534e-003 -8.333538e-001 -3.552935e-001 4.234241e-001
-6.884683e-003 6.141045e-002 5.154958e-003 -7.808696e-001 -5.532901e-001 2.900219e-001
-6.884683e-003 6.141045e-002 7.604332e-003 -1.819035e-001 -5.318609e-001 -8.270642e-001
-6.884683e-003 6.547604e-002 5.831213e-003 -8.474699e-001 3.202208e-001 4.233834e-001
-4.851891e-003 -2.803243e-002 4.779683e-003 -2.816359e-001 5.748232e-001 7.682835e-001
-4.851891e-003 -2.599964e-002 4.867036e-003 -5.484864e-002 -6.664893e-001 7.434942e-001
-4.851891e-003 -1.583567e-002 3.646082e-003 3.379339e-001 7.650025e-001 5.482442e-001
-4.851891e-003 -1.583567e-002 7.672166e-003 -3.603469e-001 4.437250e-001 -8.205231e-001
-4.851891e-003 -1.380288e-002 3.700733e-003 4.253505e-001 -7.492372e-001 5.076619e-001
-4.851891e-003 -1.380288e-002 7.656531e-003 -5.162673e-002 -4.991975e-001 -8.649489e-001
-4.851891e-003 -5.671711e-003 3.214477e-003 -5.895273e-002 -3.310037e-002 9.977118e-001
-4.851891e-003 2.075460e-002 1.775623e-003 5.320219e-001 7.541587e-001 3.849642e-001
-4.851891e-003 2.075460e-002 4.376447e-003 1.226737e-001 9.823452e-001 -1.412414e-001
-4.851891e-003 2.075460e-002 7.397171e-003 -5.294998e-002 9.240934e-001 3.784808e-001
-4.851891e-003 2.278739e-002 3.346108e-003 7.013485e-001 -7.660643e-002 7.086902e-001
-4.851891e-003 2.482018e-002 2.938863e-003 6.986139e-001 -2.229823e-001 6.798658e-001
-4.851891e-003 2.685297e-002 4.154698e-003 5.933197e-001 -7.032785e-001 3.916262e-001
-4.851891e-003 3.498415e-002 1.409132e-003 7.823282e-001 5.948980e-003 6.228380e-001
-4.851891e-003 4.514811e-002 4.890588e-003 4.385521e-001 6.085359e-001 6.613290e-001
-4.851891e-003 4.514811e-002 7.721713e-003 2.887053e-001 7.140412e-001 -6.378044e-001
-4.851891e-003 4.718090e-002 4.474218e-003 3.565820e-001 -4.038713e-001 8.424591e-001
-4.851891e-003 5.937766e-002 6.208472e-003 -8.519176e-001 2.270037e-002 5.231835e-001
-4.851891e-003 6.344324e-002 6.384857e-003 -2.774450e-001 -2.356895e-002 9.604523e-001
-2.819098e-003 -2.803243e-002 4.920112e-003 -5.616884e-001 5.625005e-001 6.067119e-001
-2.819098e-003 -2.599964e-002 4.843873e-003 -1.476465e-001 4.913307e-001 8.583674e-001
-2.819098e-003 -2.396685e-002 2.307224e-003 1.715080e-004 -1.471423e-002 9.998917e-001
-2.819098e-003 -1.786847e-002 1.856190e-003 -1.787412e-002 9.965044e-001 8.160671e-002
-2.819098e-003 -1.786847e-002 3.381053e-003 -9.866008e-003 6.713045e-001 -7.411160e-001
-2.819098e-003 -1.583567e-002 3.973632e-003 -8.202053e-001 2.406034e-001 5.190119e-001
-2.819098e-003 -1.583567e-002 7.631647e-003 -4.625045e-001 4.399631e-001 -7.697546e-001
-2.819098e-003 -1.380288e-002 4.014513e-003 -6.409071e-001 -5.963109e-001 4.833750e-001
-2.819098e-003 -1.380288e-002 7.653952e-003 -4.485308e-001 -4.402390e-001 -7.778237e-001
-2.819098e-003 4.492254e-003 2.554804e-003 -1.811463e-001 -5.269176e-001 8.303878e-001
-2.819098e-003 4.492254e-003 5.719455e-003 1.689797e-002 -2.882196e-001 -9.574152e-001
-2.819098e-003 1.059063e-002 4.194374e-003 1.769985e-001 -8.270432e-001 5.335458e-001
-2.819098e-003 1.059063e-002 5.401446e-003 8.350795e-002 -3.026820e-001 -9.494262e-001
-2.819098e-003 1.668901e-002 4.400011e-003 6.879832e-003 1.410087e-002 9.998769e-001
-2.819098e-003 2.075460e-002 7.462087e-003 -2.971739e-002 7.881467e-001 6.147695e-001
-2.819098e-003 2.278739e-002 7.242410e-003 -7.716522e-001 3.665534e-001 5.197994e-001
-2.819098e-003 2.482018e-002 4.022870e-003 -3.092099e-001 9.559604e-002 9.461768e-001
-2.819098e-003 2.685297e-002 4.092527e-003 -1.157987e-001 -8.141256e-001 5.690256e-001
-2.819098e-003 3.498415e-002 2.394979e-003 -8.625004e-001 2.750785e-003 5.060490e-001
-2.819098e-003 4.311532e-002 6.486662e-003 2.268911e-003 9.694862e-001 -2.451355e-001
-2.819098e-003 4.311532e-002 7.324398e-003 1.925231e-003 7.349829e-001 -6.780829e-001
-2.819098e-003 4.514811e-002 5.030338e-003 -6.975767e-001 1.954336e-001 6.893420e-001
