ply
format ascii 1.0
comment Written by HALCON (export v1.0)
element vertex 555
property float x
property float y
property float z
property float nx
property float ny
property float nz
end_header
2.684799e-002 -5.921443e-003 6.671200e-003 -6.206430e-001 5.398418e-001 5.686591e-001
2.684799e-002 -2.633819e-003 6.671200e-003 -3.401197e-001 -1.661288e-001 9.255916e-001
2.684799e-002 -2.172444e-003 6.671200e-003 -2.868023e-001 -2.646305e-001 9.207145e-001
2.684799e-002 4.926817e-004 6.671200e-003 -1.222159e-001 -5.932792e-001 7.956652e-001
2.968359e-002 -1.486131e-003 6.671200e-003 -7.389305e-001 4.385792e-001 5.114978e-001
2.968359e-002 1.097981e-003 6.671200e-003 -6.533215e-001 -6.411188e-001 4.026632e-001
-5.254880e-002 2.842967e-002 9.506799e-003 7.372433e-001 -6.009442e-001 3.087692e-001
-5.254880e-002 2.868964e-002 9.506799e-003 7.362087e-001 -6.158195e-001 2.806477e-001
-4.971320e-002 2.175313e-002 9.506799e-003 4.738018e-001 7.735499e-001 4.208710e-001
-4.971320e-002 2.447939e-002 9.506799e-003 -3.562903e-002 -1.299219e-001 9.908839e-001
-4.971320e-002 2.985400e-002 9.506799e-003 7.512468e-001 -6.294817e-001 1.984464e-001
-4.971320e-002 3.158018e-002 9.506799e-003 6.976884e-001 -7.075045e-001 1.125536e-001
-4.687760e-002 1.693365e-002 9.506799e-003 6.951612e-001 6.358117e-001 3.354019e-001
-4.687760e-002 1.834384e-002 9.506799e-003 7.387952e-001 4.777554e-001 4.753225e-001
-4.404201e-002 2.207579e-002 9.506799e-003 -1.919731e-002 4.610867e-001 8.871474e-001
-4.404201e-002 2.474059e-002 9.506799e-003 -1.658182e-001 3.191954e-001 9.330695e-001
-4.404201e-002 2.681530e-002 9.506799e-003 -3.325313e-001 1.896331e-001 9.238302e-001
-4.404201e-002 3.093150e-002 9.506799e-003 3.908585e-001 -6.950003e-001 6.034933e-001
-4.404201e-002 3.654066e-002 9.506799e-003 7.309570e-001 -6.647853e-001 1.541504e-001
-4.404201e-002 3.722387e-002 9.506799e-003 7.442998e-001 -6.578057e-001 1.153660e-001
-4.120640e-002 1.162452e-002 9.506799e-003 -5.332974e-001 8.403712e-001 9.679953e-002
-4.120640e-002 1.179632e-002 9.506799e-003 -5.331964e-001 8.385271e-001 1.121335e-001
-4.120640e-002 2.912347e-002 9.506799e-003 -5.990244e-001 7.237673e-001 3.425356e-001
-4.120640e-002 3.241484e-002 9.506799e-003 2.461492e-001 -6.220652e-001 7.432667e-001
-4.120640e-002 3.692281e-002 9.506799e-003 -1.075241e-001 9.836750e-001 -1.442984e-001
-4.120640e-002 4.002515e-002 9.506799e-003 6.639199e-001 -6.783982e-001 3.146207e-001
-3.837080e-002 2.207892e-002 9.506799e-003 5.856159e-001 7.718927e-001 2.474586e-001
-3.837080e-002 2.621925e-002 9.506799e-003 8.657564e-001 -4.683782e-001 1.763170e-001
-3.837080e-002 3.099458e-002 9.506799e-003 2.058691e-001 3.035720e-001 9.303020e-001
-3.837080e-002 3.266632e-002 9.506799e-003 4.109294e-001 1.557701e-001 8.982609e-001
-3.837080e-002 3.720132e-002 9.506799e-003 -3.190996e-001 5.688713e-001 7.579979e-001
-3.837080e-002 4.048071e-002 9.506799e-003 9.975678e-002 -9.047865e-001 4.140169e-001
-3.553521e-002 1.710729e-002 9.506799e-003 -7.152812e-001 6.862256e-001 1.321640e-001
-3.553521e-002 1.791959e-002 9.506799e-003 -6.492280e-001 7.325569e-001 2.046056e-001
-3.553521e-002 2.246288e-002 9.506799e-003 -1.070593e-001 9.876398e-001 1.144810e-001
-3.553521e-002 2.854601e-002 9.506799e-003 1.222683e-001 -3.456796e-001 9.303527e-001
-3.553521e-002 2.877637e-002 9.506799e-003 7.529144e-002 -3.490087e-001 9.340900e-001
-3.553521e-002 3.338299e-002 9.506799e-003 -3.299977e-001 -8.444425e-001 4.219223e-001
-3.553521e-002 4.208353e-002 9.506799e-003 8.916433e-001 -3.303348e-001 3.095984e-001
-3.553521e-002 4.304191e-002 9.506799e-003 9.010198e-001 -3.993155e-001 1.694420e-001
-3.269961e-002 1.978015e-002 9.506799e-003 6.564004e-002 9.889780e-001 1.327171e-001
-3.269961e-002 2.286942e-002 9.506799e-003 -3.701991e-001 -8.268459e-001 4.234129e-001
-3.269961e-002 4.451151e-002 9.506799e-003 4.504204e-001 -8.515047e-001 2.684422e-001
-3.269961e-002 4.574433e-002 9.506799e-003 4.997410e-001 -8.581583e-001 1.175721e-001
-2.986401e-002 2.009243e-002 9.506799e-003 -2.395240e-001 9.643278e-001 1.126949e-001
-2.986401e-002 2.211529e-002 9.506799e-003 -2.182283e-001 9.140803e-001 3.418094e-001
-2.986401e-002 3.361676e-002 9.506799e-003 3.632372e-001 -7.312223e-003 9.316680e-001
-2.986401e-002 3.487634e-002 9.506799e-003 4.331135e-001 -1.952687e-001 8.799334e-001
-2.986401e-002 4.476443e-002 9.506799e-003 1.681181e-001 3.564838e-001 9.190515e-001
-2.986401e-002 4.864215e-002 9.506799e-003 7.777637e-001 -6.071493e-001 1.626447e-001
-2.702841e-002 2.273336e-002 9.506799e-003 -4.975574e-001 7.020279e-001 5.095031e-001
-2.702841e-002 2.359959e-002 9.506799e-003 -4.892955e-001 2.506939e-001 8.353098e-001
-2.702841e-002 3.335489e-002 9.506799e-003 -9.025736e-001 3.968767e-001 1.668825e-001
-2.702841e-002 3.642487e-002 9.506799e-003 3.373583e-001 -4.493163e-001 8.272269e-001
-2.702841e-002 4.434153e-002 9.506799e-003 -2.704102e-002 2.871527e-001 9.575031e-001
-2.702841e-002 4.710077e-002 9.506799e-003 -6.316704e-001 -2.059184e-001 7.473889e-001
-2.702841e-002 5.096355e-002 9.506799e-003 7.099659e-002 -9.886586e-001 1.323392e-001
-2.702841e-002 5.138065e-002 9.506799e-003 9.077598e-002 -9.875787e-001 1.282493e-001
-2.419281e-002 2.572268e-002 9.506799e-003 -8.178864e-001 -3.616281e-001 4.475342e-001
-2.419281e-002 2.585039e-002 9.506799e-003 -7.921283e-001 -4.292465e-001 4.339128e-001
-2.419281e-002 3.689833e-002 9.506799e-003 -5.952361e-001 7.724479e-001 -2.214005e-001
-2.419281e-002 4.411747e-002 9.506799e-003 -4.113910e-001 -8.128815e-001 4.122877e-001
-1.568601e-002 3.145359e-002 9.506799e-003 -3.859301e-001 8.301724e-001 4.023328e-001
-1.568601e-002 3.151205e-002 9.506799e-003 -3.759276e-001 8.223497e-001 4.271058e-001
-1.285041e-002 3.428662e-002 9.506799e-003 -8.579063e-001 4.158073e-001 3.018292e-001
-1.285041e-002 3.434820e-002 9.506799e-003 -8.566943e-001 3.952498e-001 3.314400e-001
-7.179207e-003 -1.980582e-002 9.506799e-003 7.746376e-001 6.172191e-001 1.377574e-001
-7.179207e-003 -1.888322e-002 9.506799e-003 9.417569e-001 3.226701e-001 9.475246e-002
-4.343607e-003 -1.297631e-002 9.506799e-003 9.556519e-001 -2.369769e-001 -1.748471e-001
-4.343607e-003 -1.088316e-002 9.506799e-003 7.070564e-001 -5.747185e-001 -4.120315e-001
-1.508007e-003 -2.267492e-002 9.506799e-003 5.663868e-001 6.384100e-001 5.211896e-001
-1.508007e-003 -2.009694e-002 9.506799e-003 5.923425e-001 2.404405e-001 7.689725e-001
-1.508007e-003 -1.823884e-002 9.506799e-003 3.646544e-001 -9.437656e-002 9.263478e-001
-1.508007e-003 -1.176496e-002 9.506799e-003 -2.853014e-001 5.904102e-001 7.549959e-001
-1.508007e-003 -1.088689e-002 9.506799e-003 1.012538e-001 6.543269e-001 7.494023e-001
-1.508007e-003 -4.888408e-003 9.506799e-003 7.708277e-001 -6.368874e-001 1.411302e-002
1.327593e-003 -2.257765e-002 9.506799e-003 -7.664981e-002 9.881784e-001 1.327716e-001
1.327593e-003 -1.715920e-002 9.506799e-003 -2.264889e-001 -9.573230e-001 -1.795422e-001
1.327593e-003 -1.153521e-002 9.506799e-003 -1.896004e-001 6.026075e-001 7.751876e-001
1.327593e-003 -4.218026e-003 9.506799e-003 4.802128e-001 -6.077138e-001 6.325184e-001
4.163193e-003 -2.241026e-002 9.506799e-003 -1.119868e-001 9.898477e-001 8.752397e-002
4.163193e-003 -2.179842e-002 9.506799e-003 -1.718839e-001 9.780580e-001 1.177222e-001
4.163193e-003 -1.018913e-002 9.506799e-003 -6.740168e-001 6.352156e-001 3.770975e-001
4.163193e-003 -5.456032e-003 9.506799e-003 -6.661265e-001 -3.560623e-001 6.553588e-001
4.163193e-003 8.036356e-003 9.506799e-003 9.197724e-001 -3.465230e-001 -1.842295e-001
4.163193e-003 8.861305e-003 9.506799e-003 8.349761e-001 -4.632774e-001 -2.969663e-001
6.998793e-003 -2.525247e-002 9.506799e-003 6.364973e-001 7.694555e-001 5.300465e-002
6.998793e-003 -2.468729e-002 9.506799e-003 6.362349e-001 7.657753e-001 9.377273e-002
6.998793e-003 -2.874801e-003 9.506799e-003 4.925301e-001 -2.107044e-001 8.444037e-001
6.998793e-003 -2.297529e-003 9.506799e-003 5.797924e-001 -2.968695e-001 7.587550e-001
9.834393e-003 -2.525298e-002 9.506799e-003 1.905226e-002 9.557858e-001 2.934458e-001
9.834393e-003 -2.471972e-002 9.506799e-003 4.764430e-002 9.497128e-001 3.094766e-001
9.834393e-003 -1.056609e-002 9.506799e-003 4.193115e-001 3.667204e-001 8.304782e-001
9.834393e-003 -6.895596e-003 9.506799e-003 4.079206e-001 -6.724695e-001 6.175643e-001
9.834393e-003 -3.149013e-003 9.506799e-003 -7.625302e-001 5.337005e-001 3.656659e-001
9.834393e-003 -1.250570e-003 9.506799e-003 5.072674e-001 -2.732635e-002 8.613554e-001
9.834393e-003 5.497246e-003 9.506799e-003 4.144615e-001 8.576898e-001 3.042858e-001
9.834393e-003 9.658418e-003 9.506799e-003 -7.878239e-002 -9.718742e-001 2.219322e-001
1.266999e-002 -2.819143e-002 9.506799e-003 6.684586e-001 7.406679e-001 6.763241e-002
1.266999e-002 -1.997839e-002 9.506799e-003 2.001444e-001 -7.347471e-001 6.481427e-001
1.266999e-002 -1.475313e-002 9.506799e-003 -1.338647e-001 7.873832e-001 6.017541e-001
1.266999e-002 -9.450600e-003 9.506799e-003 -5.723982e-001 -1.614242e-001 8.039294e-001
1.266999e-002 -1.103545e-003 9.506799e-003 -2.741024e-001 7.497664e-001 6.022609e-001
1.266999e-002 7.346327e-003 9.506799e-003 -7.241527e-001 -5.235039e-001 4.489394e-001
1.550559e-002 -2.826148e-002 9.506799e-003 1.153586e-001 9.833806e-001 1.401962e-001
1.550559e-002 -2.708951e-002 9.506799e-003 9.117363e-002 9.926879e-001 7.910895e-002
1.550559e-002 -2.328349e-002 9.506799e-003 -3.734447e-001 5.694138e-001 7.323298e-001
1.550559e-002 -1.819214e-002 9.506799e-003 6.286642e-001 -4.357837e-001 6.441071e-001
1.550559e-002 -6.100080e-003 9.506799e-003 3.315310e-001 6.941499e-001 6.389391e-001
1.550559e-002 -3.325519e-003 9.506799e-003 8.324547e-001 -5.095325e-001 2.177056e-001
1.550559e-002 2.198517e-003 9.506799e-003 -3.160884e-001 8.778728e-001 3.597601e-001
1.550559e-002 6.417339e-003 9.506799e-003 -9.323750e-002 -9.881641e-001 1.218137e-001
1.834119e-002 -2.848447e-002 9.506799e-003 7.281899e-002 8.986139e-001 4.326552e-001
1.834119e-002 -2.551337e-002 9.506799e-003 1.745242e-001 -1.288706e-001 9.761832e-001
1.834119e-002 -2.425109e-002 9.506799e-003 -2.081531e-001 -1.381470e-001 9.682911e-001
1.834119e-002 -1.719865e-002 9.506799e-003 -8.358945e-001 -1.596705e-001 5.251530e-001
1.834119e-002 -1.619745e-002 9.506799e-003 -6.711213e-001 -1.320491e-001 7.294925e-001
1.834119e-002 -1.196611e-002 9.506799e-003 5.086296e-001 -3.039022e-001 8.055677e-001
1.834119e-002 -7.320870e-003 9.506799e-003 3.664918e-001 5.190574e-001 7.721807e-001
1.834119e-002 6.293408e-003 9.506799e-003 -2.667297e-001 -9.576662e-001 1.083086e-001
2.117679e-002 -3.118994e-002 9.506799e-003 3.262852e-001 9.370663e-001 1.242766e-001
2.117679e-002 -2.874269e-002 9.506799e-003 -4.990168e-001 2.606217e-001 8.264735e-001
2.117679e-002 -1.392420e-002 9.506799e-003 -5.443780e-001 8.250474e-001 1.514904e-001
2.117679e-002 -8.987998e-003 9.506799e-003 -6.680703e-002 -3.403644e-002 9.971852e-001
2.117679e-002 -7.488907e-003 9.506799e-003 -5.408660e-002 1.593089e-001 9.857461e-001
2.117679e-002 2.293620e-003 9.506799e-003 1.247950e-001 -6.020035e-001 7.886812e-001
2.401239e-002 -2.563068e-002 9.506799e-003 -9.966478e-001 7.265902e-002 3.760225e-002
2.401239e-002 -2.483944e-002 9.506799e-003 -9.994665e-001 8.575108e-003 -3.151445e-002
2.401239e-002 -2.051638e-002 9.506799e-003 -9.519794e-001 9.570540e-002 2.908189e-001
2.401239e-002 -1.822918e-002 9.506799e-003 -8.694327e-001 -9.419228e-002 4.849892e-001
2.401239e-002 -6.989984e-003 9.506799e-003 -4.693231e-001 5.136914e-001 7.182318e-001
2.401239e-002 3.601180e-003 9.506799e-003 -7.878044e-002 -8.935708e-001 4.419557e-001
2.684799e-002 -6.305397e-003 9.506799e-003 -3.275813e-001 9.414200e-001 -8.011761e-002
2.684799e-002 2.262964e-003 9.506799e-003 -3.498252e-001 -8.019487e-001 4.842527e-001
2.968359e-002 -5.889031e-003 9.506799e-003 -1.999823e-001 7.992750e-001 5.667156e-001
2.968359e-002 1.834934e-003 9.506799e-003 -5.393484e-001 -7.563623e-001 3.701612e-001
3.251919e-002 -5.657010e-003 9.506799e-003 -5.126102e-001 5.723358e-001 6.400489e-001
3.251919e-002 -3.638708e-003 9.506799e-003 -4.410053e-001 3.195867e-001 8.386768e-001
3.535479e-002 -3.118700e-003 9.506799e-003 -7.967112e-001 3.997985e-001 4.532244e-001
3.535479e-002 -1.393377e-003 9.506799e-003 -9.189637e-001 2.621935e-002 3.934695e-001
-5.254880e-002 2.535881e-002 1.234240e-002 5.375653e-001 6.154902e-001 5.763639e-001
-5.254880e-002 2.929744e-002 1.234240e-002 6.217569e-001 -7.747660e-001 1.146999e-001
-4.971320e-002 2.105165e-002 1.234240e-002 5.404589e-001 8.335142e-001 1.147099e-001
-4.971320e-002 2.835599e-002 1.234240e-002 -9.270760e-001 -2.775793e-001 -2.519518e-001
-4.971320e-002 2.906886e-002 1.234240e-002 -4.654429e-001 -8.562953e-001 -2.238777e-001
-4.971320e-002 3.178256e-002 1.234240e-002 7.074661e-001 -6.995260e-001 1.007726e-001
-4.687760e-002 1.672221e-002 1.234240e-002 7.511345e-001 6.133510e-001 2.441262e-001
-4.687760e-002 1.881505e-002 1.234240e-002 9.391026e-001 2.028583e-001 2.773711e-001
-4.687760e-002 3.182199e-002 1.234240e-002 3.421991e-001 -3.644978e-001 8.660491e-001
-4.687760e-002 3.448318e-002 1.234240e-002 6.959854e-001 -7.074360e-001 1.230390e-001
-4.404201e-002 1.316028e-002 1.234240e-002 8.812832e-001 4.228638e-001 2.110121e-001
-4.404201e-002 1.570787e-002 1.234240e-002 7.773734e-001 7.591859e-002 6.244414e-001
-4.404201e-002 1.822314e-002 1.234240e-002 -5.358494e-001 3.262722e-001 7.787245e-001
-4.404201e-002 2.518584e-002 1.234240e-002 -6.837314e-001 -3.375299e-001 6.469813e-001
-4.404201e-002 2.638729e-002 1.234240e-002 -5.811883e-001 3.300881e-001 7.438158e-001
-4.404201e-002 3.339593e-002 1.234240e-002 -3.054984e-001 -2.510804e-001 9.184930e-001
-4.404201e-002 3.481904e-002 1.234240e-002 2.023889e-001 -5.816246e-001 7.878779e-001
-4.404201e-002 3.743095e-002 1.234240e-002 7.394589e-001 -6.660227e-001 9.805296e-002
-4.120640e-002 1.145974e-002 1.234240e-002 -4.648217e-001 8.817109e-001 8.078755e-002
-4.120640e-002 1.609158e-002 1.234240e-002 -8.946775e-002 -8.802309e-001 4.660355e-001
-4.120640e-002 2.853844e-002 1.234240e-002 -5.481949e-001 8.129423e-001 -1.964868e-001
-4.120640e-002 3.325044e-002 1.234240e-002 2.219330e-001 -3.536113e-001 9.086830e-001
-4.120640e-002 3.596101e-002 1.234240e-002 1.259345e-001 3.310342e-001 9.351775e-001
-4.120640e-002 4.023081e-002 1.234240e-002 6.813457e-001 -7.260926e-001 9.250699e-002
-3.837080e-002 1.431679e-002 1.234240e-002 -8.107178e-001 5.775191e-001 9.595967e-002
-3.837080e-002 1.519818e-002 1.234240e-002 -8.234506e-001 5.497859e-001 1.402307e-001
-3.837080e-002 2.164208e-002 1.234240e-002 4.621526e-001 7.919251e-001 -3.990861e-001
-3.837080e-002 2.713234e-002 1.234240e-002 9.492038e-001 -3.089812e-001 5.951991e-002
-3.837080e-002 2.916820e-002 1.234240e-002 3.149562e-001 4.535643e-001 8.337158e-001
-3.837080e-002 4.066869e-002 1.234240e-002 2.370203e-001 -9.643069e-001 1.180407e-001
-3.553521e-002 1.690990e-002 1.234240e-002 -6.977965e-001 7.073323e-001 1.129646e-001
-3.553521e-002 1.863603e-002 1.234240e-002 -4.577452e-001 8.662177e-001 2.003402e-001
-3.553521e-002 2.249330e-002 1.234240e-002 -2.497336e-001 8.774027e-001 -4.096310e-001
-3.553521e-002 3.354654e-002 1.234240e-002 -3.005811e-001 -8.437532e-001 4.446703e-001
-3.553521e-002 3.614477e-002 1.234240e-002 -2.797908e-001 1.974879e-001 9.395295e-001
-3.553521e-002 4.354808e-002 1.234240e-002 8.348372e-001 -5.327710e-001 1.385710e-001
-3.269961e-002 1.960540e-002 1.234240e-002 -4.347000e-002 9.751762e-001 -2.171213e-001
-3.269961e-002 2.752619e-002 1.234240e-002 -8.354137e-001 -3.077533e-001 4.553810e-001
-3.269961e-002 3.336424e-002 1.234240e-002 1.717560e-001 5.582212e-001 8.117198e-001
-3.269961e-002 4.582451e-002 1.234240e-002 5.379763e-001 -8.382712e-001 8.878592e-002
-2.986401e-002 1.993014e-002 1.234240e-002 -2.329678e-001 9.664757e-001 1.079385e-001
-2.986401e-002 2.618671e-002 1.234240e-002 -1.342466e-001 -6.654428e-001 7.342777e-001
-2.986401e-002 3.277626e-002 1.234240e-002 -4.362277e-002 9.988235e-001 -2.118282e-002
-2.986401e-002 4.903081e-002 1.234240e-002 7.370116e-001 -6.637176e-001 1.276436e-001
-2.702841e-002 2.155999e-002 1.234240e-002 -3.145994e-001 9.301789e-001 1.891941e-001
-2.702841e-002 2.610704e-002 1.234240e-002 1.987693e-001 -8.475044e-001 4.921657e-001
-2.702841e-002 3.298250e-002 1.234240e-002 -9.033006e-001 3.998426e-001 1.554794e-001
-2.702841e-002 4.762302e-002 1.234240e-002 -6.257589e-001 -7.026621e-001 3.386618e-001
-2.702841e-002 4.996477e-002 1.234240e-002 8.443704e-002 -9.717833e-001 2.202444e-001
-2.702841e-002 5.154404e-002 1.234240e-002 1.923850e-001 -9.729329e-001 1.280219e-001
-2.419281e-002 2.411747e-002 1.234240e-002 -8.288970e-001 4.261511e-001 3.623878e-001
-2.419281e-002 2.661806e-002 1.234240e-002 -6.206291e-001 -7.251834e-001 2.982090e-001
-2.419281e-002 3.869221e-002 1.234240e-002 -6.415077e-001 7.445397e-001 1.847390e-001
-2.419281e-002 4.528680e-002 1.234240e-002 -6.132223e-001 -6.893556e-001 3.856777e-001
-2.135721e-002 4.170626e-002 1.234240e-002 -4.473460e-001 8.288087e-001 3.360919e-001
-2.135721e-002 4.528644e-002 1.234240e-002 -3.667479e-001 -5.279417e-001 7.660114e-001
-1.852161e-002 3.936665e-002 1.234240e-002 -9.280004e-002 5.663709e-001 8.189091e-001
-1.852161e-002 4.117191e-002 1.234240e-002 -3.335920e-001 1.264355e-001 9.342004e-001
-1.568601e-002 3.126911e-002 1.234240e-002 -3.874890e-001 8.584139e-001 3.361218e-001
-1.568601e-002 3.175459e-002 1.234240e-002 -2.329347e-001 7.479622e-001 6.215255e-001
-1.285041e-002 3.408195e-002 1.234240e-002 -3.359426e-001 9.355195e-001 1.092970e-001
-1.285041e-002 3.940643e-002 1.234240e-002 4.844357e-001 -5.827719e-001 6.524561e-001
-1.001481e-002 3.706706e-002 1.234240e-002 -7.129427e-001 3.533749e-001 6.056723e-001
-1.001481e-002 3.736244e-002 1.234240e-002 -7.223501e-001 3.025839e-001 6.218145e-001
-7.179207e-003 -1.996503e-002 1.234240e-002 7.153657e-001 5.640245e-001 -4.124662e-001
-7.179207e-003 -1.866602e-002 1.234240e-002 8.945475e-001 1.337146e-001 -4.265034e-001
-4.343607e-003 -1.967460e-002 1.234240e-002 3.141632e-002 9.872202e-001 1.562349e-001
-4.343607e-003 -1.379022e-002 1.234240e-002 7.429037e-001 -6.186187e-001 2.557440e-001
-1.508007e-003 -2.264986e-002 1.234240e-002 6.145869e-001 7.887623e-001 1.169957e-002
-1.508007e-003 -1.401726e-002 1.234240e-002 1.180856e-002 -9.714071e-001 -2.371263e-001
-1.508007e-003 -9.866229e-003 1.234240e-002 9.680723e-001 2.480549e-001 -3.612226e-002
-1.508007e-003 -4.907844e-003 1.234240e-002 7.480062e-001 -6.229495e-001 -2.289555e-001
1.327593e-003 -2.263012e-002 1.234240e-002 2.900884e-002 9.770533e-001 2.110104e-001
1.327593e-003 -3.389909e-003 1.234240e-002 8.845086e-001 -3.530864e-001 3.049172e-001
4.163193e-003 -2.564533e-002 1.234240e-002 5.171278e-001 6.722948e-001 5.297155e-001
4.163193e-003 -1.442186e-002 1.234240e-002 6.915517e-001 -2.572629e-001 6.749607e-001
4.163193e-003 -1.281613e-002 1.234240e-002 3.334512e-001 2.000386e-001 9.213006e-001
4.163193e-003 -2.684859e-003 1.234240e-002 4.234350e-001 -8.823765e-001 2.052184e-001
4.163193e-003 4.049334e-003 1.234240e-002 9.851505e-001 -2.866726e-002 1.692828e-001
4.163193e-003 6.530707e-003 1.234240e-002 8.584848e-001 -5.120369e-001 2.866923e-002
6.998793e-003 -2.534110e-002 1.234240e-002 -2.629258e-002 9.840849e-001 1.757431e-001
6.998793e-003 -2.347629e-002 1.234240e-002 -1.451762e-001 9.761230e-001 1.615788e-001
6.998793e-003 -2.100701e-002 1.234240e-002 -1.939046e-001 2.149851e-002 9.807848e-001
6.998793e-003 -1.709365e-002 1.234240e-002 -1.682487e-001 8.288056e-001 5.336419e-001
6.998793e-003 -1.667824e-002 1.234240e-002 -1.974265e-001 8.903027e-001 4.103461e-001
6.998793e-003 -1.206105e-002 1.234240e-002 3.550691e-001 -7.128666e-001 6.047704e-001
6.998793e-003 -4.072110e-003 1.234240e-002 4.561523e-002 4.741484e-001 8.792626e-001
6.998793e-003 -1.150175e-003 1.234240e-002 3.170036e-001 -4.392332e-001 8.405849e-001
6.998793e-003 5.785788e-003 1.234240e-002 -4.196461e-001 -2.440843e-001 8.742540e-001
6.998793e-003 6.027558e-003 1.234240e-002 -3.514503e-001 -3.556984e-001 8.660031e-001
9.834393e-003 -2.562137e-002 1.234240e-002 1.222627e-001 9.828776e-001 1.378530e-001
9.834393e-003 -2.304819e-002 1.234240e-002 5.137398e-001 6.750607e-001 5.294945e-001
9.834393e-003 -2.063237e-002 1.234240e-002 3.469536e-001 8.622151e-002 9.339106e-001
9.834393e-003 -1.399207e-002 1.234240e-002 -7.498854e-001 5.255827e-001 4.017892e-001
9.834393e-003 -1.386543e-002 1.234240e-002 -7.473068e-001 5.390806e-001 3.884901e-001
9.834393e-003 -8.778767e-003 1.234240e-002 8.985829e-001 -4.381688e-001 2.359914e-002
9.834393e-003 -7.282766e-003 1.234240e-002 7.847227e-001 -1.410885e-001 6.035763e-001
9.834393e-003 -1.075391e-003 1.234240e-002 5.253121e-001 -7.479230e-001 4.057813e-001
9.834393e-003 3.423656e-003 1.234240e-002 4.126680e-001 5.500134e-001 7.260787e-001
9.834393e-003 9.939558e-003 1.234240e-002 1.574493e-001 -9.811853e-001 1.117370e-001
1.266999e-002 -2.828414e-002 1.234240e-002 6.956604e-001 7.114729e-001 9.931196e-002
1.266999e-002 -2.533562e-002 1.234240e-002 -5.531088e-001 1.798680e-001 8.134606e-001
1.266999e-002 -2.514182e-002 1.234240e-002 -6.454468e-001 4.306811e-002 7.625900e-001
1.266999e-002 -1.833116e-002 1.234240e-002 1.501536e-001 -6.476246e-001 7.470183e-001
1.266999e-002 -1.357725e-002 1.234240e-002 5.561905e-001 8.280949e-001 -7.007841e-002
1.266999e-002 7.451469e-003 1.234240e-002 -8.497230e-001 -5.191835e-001 -9.175701e-002
1.550559e-002 -2.852871e-002 1.234240e-002 3.287405e-001 9.442391e-001 -1.849925e-002
1.550559e-002 -2.579854e-002 1.234240e-002 3.214550e-001 4.459029e-001 8.353665e-001
1.550559e-002 -2.445555e-002 1.234240e-002 2.095441e-001 8.982451e-003 9.777579e-001
1.550559e-002 6.529236e-003 1.234240e-002 -7.582204e-002 -9.915923e-001 1.048608e-001
1.834119e-002 -3.131823e-002 1.234240e-002 5.225678e-001 6.963339e-001 4.919776e-001
1.834119e-002 6.434985e-003 1.234240e-002 -2.324789e-001 -9.667533e-001 1.064965e-001
2.117679e-002 -3.134215e-002 1.234240e-002 -3.495353e-001 9.195024e-001 -1.798343e-001
2.117679e-002 -2.525101e-002 1.234240e-002 -3.475806e-001 -8.449006e-004 9.376497e-001
2.117679e-002 -2.521639e-002 1.234240e-002 -3.502042e-001 1.228552e-002 9.365928e-001
2.117679e-002 -1.420229e-002 1.234240e-002 -8.993154e-001 -8.085483e-003 4.372260e-001
2.117679e-002 -1.360341e-002 1.234240e-002 -8.897159e-001 1.147249e-001 4.418641e-001
2.117679e-002 4.834224e-003 1.234240e-002 -1.346890e-001 -9.375794e-001 3.206302e-001
2.401239e-002 -2.881069e-002 1.234240e-002 -8.798961e-001 4.485828e-001 1.567046e-001
2.401239e-002 -2.476768e-002 1.234240e-002 -9.789075e-001 -1.970733e-001 -5.387308e-002
2.401239e-002 -2.108447e-002 1.234240e-002 -9.853724e-001 1.115075e-001 1.288696e-001
2.401239e-002 -1.768586e-002 1.234240e-002 -9.579243e-001 -1.846872e-001 2.197081e-001
2.401239e-002 -1.268462e-002 1.234240e-002 -3.976047e-001 3.558380e-001 8.457481e-001
2.401239e-002 -4.288991e-003 1.234240e-002 -6.605546e-001 -7.451519e-001 9.173910e-002
2.401239e-002 -2.950328e-004 1.234240e-002 2.729080e-001 9.269876e-001 2.573230e-001
2.401239e-002 5.298131e-003 1.234240e-002 -2.916976e-002 -9.836434e-001 1.777494e-001
2.684799e-002 -9.340640e-003 1.234240e-002 -1.904488e-001 9.055898e-002 9.775113e-001
2.684799e-002 -7.344236e-003 1.234240e-002 -1.285600e-001 5.181958e-002 9.903470e-001
2.684799e-002 -4.325975e-003 1.234240e-002 -1.257578e-001 9.910608e-001 4.453602e-002
2.684799e-002 3.954473e-003 1.234240e-002 -3.535789e-001 -8.941535e-001 2.747205e-001
2.968359e-002 -9.498470e-003 1.234240e-002 -5.131330e-001 1.564025e-001 8.439389e-001
2.968359e-002 -4.581308e-003 1.234240e-002 7.875609e-001 -5.497808e-001 2.783683e-001
2.968359e-002 -1.347972e-003 1.234240e-002 -8.019590e-001 3.750030e-001 4.650103e-001
2.968359e-002 2.647913e-003 1.234240e-002 -5.000737e-001 -7.779460e-001 3.804291e-001
3.251919e-002 -8.392138e-003 1.234240e-002 -4.756990e-001 6.490726e-001 5.936456e-001
3.251919e-002 -3.621389e-003 1.234240e-002 2.825812e-001 -9.420941e-001 1.805733e-001
3.251919e-002 6.804294e-002 1.234240e-002 -3.549147e-002 9.989961e-001 -2.733549e-002
3.251919e-002 6.863803e-002 1.234240e-002 -3.092621e-002 -9.992420e-001 -2.364286e-002
3.535479e-002 -3.697820e-003 1.234240e-002 -9.138259e-001 3.775215e-001 1.496658e-001
3.535479e-002 -8.895990e-004 1.234240e-002 -9.729474e-001 -1.882428e-001 1.339332e-001
9.490239e-002 1.378092e-004 1.234240e-002 -6.862688e-003 5.287728e-002 -9.985774e-001
9.490239e-002 4.349017e-004 1.234240e-002 -6.705431e-003 -6.514443e-002 -9.978533e-001
-1.659728e-001 -3.386866e-002 1.517800e-002 -1.709859e-003 4.681166e-002 9.989023e-001
-1.659728e-001 -3.361243e-002 1.517800e-002 -1.622875e-003 -5.124609e-002 9.986847e-001
-5.538441e-002 2.594376e-002 1.517800e-002 7.797101e-001 6.198342e-001 8.864368e-002
-5.538441e-002 2.901551e-002 1.517800e-002 6.721444e-001 -5.974494e-001 4.373515e-001
-5.254880e-002 2.319000e-002 1.517800e-002 6.899697e-001 7.212377e-001 6.130328e-002
-5.254880e-002 2.920151e-002 1.517800e-002 2.512149e-002 -9.417030e-001 -3.355064e-001
-4.971320e-002 2.042172e-002 1.517800e-002 6.248131e-001 7.731023e-001 1.091850e-001
-4.971320e-002 2.526664e-002 1.517800e-002 -5.908476e-001 -6.411644e-001 -4.897012e-001
-4.971320e-002 2.969677e-002 1.517800e-002 8.899931e-001 -2.803440e-001 -3.596101e-001
-4.971320e-002 3.195736e-002 1.517800e-002 7.702506e-001 -6.377361e-001 2.591578e-003
-4.687760e-002 1.470300e-002 1.517800e-002 6.526275e-001 6.242685e-001 4.293788e-001
-4.687760e-002 1.960801e-002 1.517800e-002 7.640403e-001 -5.819596e-001 2.785058e-001
-4.687760e-002 2.547207e-002 1.517800e-002 8.830065e-002 9.781488e-001 -1.882231e-001
-4.687760e-002 3.472469e-002 1.517800e-002 6.945081e-001 -7.116755e-001 1.057185e-001
-4.404201e-002 1.180747e-002 1.517800e-002 6.676701e-001 7.410915e-001 7.071058e-002
-4.404201e-002 2.560038e-002 1.517800e-002 -5.402069e-001 1.175376e-002 -8.414502e-001
-4.404201e-002 2.599382e-002 1.517800e-002 -6.844820e-001 2.030068e-001 -7.001947e-001
-4.404201e-002 3.761019e-002 1.517800e-002 7.334394e-001 -6.746362e-001 8.326139e-002
-4.120640e-002 1.133232e-002 1.517800e-002 -4.534265e-001 8.811358e-001 1.341794e-001
-4.120640e-002 1.647024e-002 1.517800e-002 -3.778835e-001 -9.245736e-001 -4.865982e-002
-4.120640e-002 2.947284e-002 1.517800e-002 -4.495744e-001 8.915910e-001 5.429919e-002
-4.120640e-002 4.038938e-002 1.517800e-002 6.654925e-001 -7.420585e-001 8.042996e-002
-3.837080e-002 1.412740e-002 1.517800e-002 -7.901080e-001 5.638087e-001 -2.405182e-001
-3.837080e-002 1.597098e-002 1.517800e-002 -8.138552e-001 3.955917e-001 -4.256136e-001
-3.837080e-002 2.756010e-002 1.517800e-002 7.701709e-001 6.052985e-001 2.011233e-001
-3.837080e-002 4.081756e-002 1.517800e-002 2.714512e-001 -9.614844e-001 -4.315235e-002
-3.553521e-002 1.674804e-002 1.517800e-002 -7.025031e-001 7.098746e-001 -5.066971e-002
-3.553521e-002 1.864643e-002 1.517800e-002 -8.407484e-001 4.583933e-001 -2.881280e-001
-3.553521e-002 2.378323e-002 1.517800e-002 2.768576e-001 9.091914e-001 -3.109997e-001
-3.553521e-002 3.424214e-002 1.517800e-002 -1.263131e-001 -8.206801e-001 5.572513e-001
-3.553521e-002 3.458722e-002 1.517800e-002 -1.473971e-001 -7.968720e-001 5.858918e-001
-3.553521e-002 4.400905e-002 1.517800e-002 8.063499e-001 -5.804433e-001 1.135140e-001
-3.269961e-002 2.411696e-002 1.517800e-002 9.753864e-002 8.332179e-001 -5.442740e-001
-3.269961e-002 3.106429e-002 1.517800e-002 -9.385094e-001 1.068083e-001 3.283170e-001
-3.269961e-002 3.165479e-002 1.517800e-002 -9.390758e-001 1.470944e-001 3.106442e-001
-3.269961e-002 3.968536e-002 1.517800e-002 6.781740e-002 4.207651e-001 9.046312e-001
-3.269961e-002 4.015241e-002 1.517800e-002 1.666976e-002 5.656143e-001 8.245014e-001
-3.269961e-002 4.603913e-002 1.517800e-002 5.459176e-001 -8.245669e-001 1.485372e-001
-2.986401e-002 1.978307e-002 1.517800e-002 5.202229e-002 9.911683e-001 1.219803e-001
-2.986401e-002 2.871417e-002 1.517800e-002 -4.264169e-001 -7.813803e-001 4.556462e-001
-2.986401e-002 3.491285e-002 1.517800e-002 4.618638e-001 5.195625e-001 -7.188439e-001
-2.986401e-002 4.944570e-002 1.517800e-002 7.424024e-001 -6.625041e-001 9.963369e-002
-2.702841e-002 2.053805e-002 1.517800e-002 -2.816510e-001 9.547142e-001 9.588187e-002
-2.702841e-002 2.733461e-002 1.517800e-002 -1.197344e-001 -9.351330e-001 3.334514e-001
-2.702841e-002 3.265930e-002 1.517800e-002 -8.583465e-001 4.910507e-001 1.486956e-001
-2.702841e-002 4.809719e-002 1.517800e-002 -8.089736e-001 1.762136e-002 5.875809e-001
-2.702841e-002 4.881303e-002 1.517800e-002 -5.387673e-001 -4.084195e-001 7.368332e-001
-2.702841e-002 5.170482e-002 1.517800e-002 2.084680e-001 -9.689965e-001 1.326158e-001
-2.419281e-002 2.289170e-002 1.517800e-002 -6.715397e-001 7.148700e-001 1.949237e-001
-2.419281e-002 2.727707e-002 1.517800e-002 -4.859151e-001 -8.445148e-001 2.251250e-001
-2.419281e-002 3.634314e-002 1.517800e-002 -6.763636e-001 7.112939e-001 -1.912935e-001
-2.419281e-002 4.542780e-002 1.517800e-002 -1.869937e-001 -9.435427e-001 2.734236e-001
-2.135721e-002 4.170128e-002 1.517800e-002 3.683387e-002 9.562303e-001 2.902873e-001
-2.135721e-002 5.141511e-002 1.517800e-002 -1.143541e-001 -9.773612e-001 1.780116e-001
-1.852161e-002 3.913497e-002 1.517800e-002 1.134290e-001 9.860840e-001 1.215410e-001
-1.852161e-002 4.899837e-002 1.517800e-002 -4.653638e-001 -8.171219e-001 3.402182e-001
-1.568601e-002 3.112070e-002 1.517800e-002 -3.890835e-001 8.804928e-001 2.708255e-001
-1.568601e-002 3.196361e-002 1.517800e-002 2.445257e-002 7.046396e-001 7.091440e-001
-1.568601e-002 4.523386e-002 1.517800e-002 -7.237238e-001 2.241682e-001 6.526657e-001
-1.568601e-002 4.615876e-002 1.517800e-002 -8.901465e-001 -1.729116e-001 4.215932e-001
-1.285041e-002 3.390956e-002 1.517800e-002 -3.147216e-001 9.416456e-001 1.193899e-001
-1.285041e-002 3.708848e-002 1.517800e-002 9.759395e-001 -1.015889e-001 -1.929298e-001
-1.285041e-002 3.732279e-002 1.517800e-002 9.744973e-001 -1.249276e-001 -1.864088e-001
-1.285041e-002 4.221075e-002 1.517800e-002 -3.206825e-001 -7.839837e-001 5.315377e-001
-1.001481e-002 3.685674e-002 1.517800e-002 -8.224488e-001 5.597351e-001 1.013637e-001
-1.001481e-002 3.845139e-002 1.517800e-002 -9.647182e-001 1.830028e-001 1.892848e-001
-4.343607e-003 -1.996151e-002 1.517800e-002 5.964290e-001 8.005447e-001 5.831490e-002
-4.343607e-003 -1.309010e-002 1.517800e-002 6.731592e-001 -7.266773e-001 1.371015e-001
-1.508007e-003 -2.271751e-002 1.517800e-002 6.753351e-001 7.340365e-001 7.150459e-002
-1.508007e-003 -1.430028e-002 1.517800e-002 -4.384097e-001 -5.789388e-001 6.874785e-001
-1.508007e-003 -1.013489e-002 1.517800e-002 9.887504e-001 1.009484e-001 1.103728e-001
-1.508007e-003 -6.990047e-003 1.517800e-002 8.700761e-001 -4.227453e-001 -2.534838e-001
1.327593e-003 -2.308710e-002 1.517800e-002 2.442407e-001 9.592559e-001 1.420376e-001
1.327593e-003 -6.399979e-003 1.517800e-002 9.520943e-001 -4.127199e-002 3.030066e-001
1.327593e-003 -4.673176e-003 1.517800e-002 9.534848e-001 1.178094e-001 2.774665e-001
1.327593e-003 -1.057105e-004 1.517800e-002 6.923432e-001 -6.656934e-001 2.784117e-001
4.163193e-003 -2.565451e-002 1.517800e-002 6.328450e-001 7.738494e-001 2.577337e-002
4.163193e-003 -1.415754e-002 1.517800e-002 -7.172837e-002 -8.194916e-001 5.685848e-001
4.163193e-003 -1.300587e-002 1.517800e-002 -3.041276e-002 -8.102013e-001 5.853622e-001
4.163193e-003 -2.640684e-003 1.517800e-002 -1.674218e-001 -8.071313e-001 -5.661352e-001
4.163193e-003 3.240075e-003 1.517800e-002 9.517115e-001 2.679325e-001 1.498579e-001
4.163193e-003 6.543779e-003 1.517800e-002 8.317724e-001 -5.547968e-001 1.884499e-002
6.998793e-003 -2.568680e-002 1.517800e-002 -1.140030e-003 9.862316e-001 1.653661e-001
6.998793e-003 -2.292264e-002 1.517800e-002 -2.132588e-001 6.767275e-001 7.046705e-001
6.998793e-003 -2.197950e-002 1.517800e-002 -1.283309e-001 2.638993e-001 9.559751e-001
6.998793e-003 -8.838103e-004 1.517800e-002 4.799930e-001 -4.948328e-001 -7.243944e-001
6.998793e-003 1.915871e-003 1.517800e-002 4.562523e-001 7.939943e-001 4.017547e-001
6.998793e-003 9.340463e-003 1.517800e-002 6.855770e-001 -7.226349e-001 8.822134e-002
9.834393e-003 -2.564216e-002 1.517800e-002 2.156342e-001 9.437900e-001 2.505241e-001
9.834393e-003 -3.797520e-004 1.517800e-002 2.445675e-001 -8.058218e-001 5.392941e-001
9.834393e-003 1.734240e-003 1.517800e-002 5.514569e-001 5.774214e-001 6.020629e-001
9.834393e-003 1.013668e-002 1.517800e-002 6.090795e-002 -9.917663e-001 1.126489e-001
1.266999e-002 -2.853616e-002 1.517800e-002 5.027839e-001 8.636914e-001 3.529090e-002
1.266999e-002 -1.699382e-002 1.517800e-002 -3.963863e-001 -5.205286e-001 7.562591e-001
1.266999e-002 -1.554277e-002 1.517800e-002 -1.779615e-001 -8.213942e-002 9.806033e-001
1.266999e-002 -6.623214e-003 1.517800e-002 -6.176808e-001 -6.469095e-001 4.471895e-001
1.266999e-002 -1.675407e-003 1.517800e-002 -6.440223e-001 7.612577e-001 7.564366e-002
1.266999e-002 5.354898e-003 1.517800e-002 1.943294e-001 -6.840809e-001 7.030429e-001
1.550559e-002 -2.817336e-002 1.517800e-002 -1.306847e-003 9.985490e-001 5.383542e-002
1.550559e-002 -9.935868e-004 1.517800e-002 7.608026e-001 4.328599e-001 4.835407e-001
1.550559e-002 7.012694e-004 1.517800e-002 -8.297607e-002 9.959804e-001 3.373396e-002
1.550559e-002 6.694901e-003 1.517800e-002 -5.202801e-003 -9.947453e-001 1.022485e-001
1.834119e-002 -3.140900e-002 1.517800e-002 4.635140e-001 8.826650e-001 7.782760e-002
1.834119e-002 -1.710361e-002 1.517800e-002 -7.115130e-001 -9.553555e-002 6.961480e-001
1.834119e-002 -1.636850e-002 1.517800e-002 -7.269403e-001 9.197512e-002 6.805133e-001
1.834119e-002 1.388822e-003 1.517800e-002 4.366383e-001 -4.720126e-001 7.658662e-001
1.834119e-002 3.826780e-003 1.517800e-002 -2.231290e-001 -3.656204e-001 9.036233e-001
1.834119e-002 6.576749e-003 1.517800e-002 -2.034050e-001 -9.737772e-001 1.019031e-001
2.117679e-002 -2.923424e-002 1.517800e-002 -4.448266e-001 8.912119e-001 -8.871689e-002
2.117679e-002 -1.799286e-002 1.517800e-002 5.270406e-001 -8.146858e-001 2.418993e-001
2.117679e-002 -1.551400e-002 1.517800e-002 5.254730e-001 8.484047e-001 6.393408e-002
2.117679e-002 6.169938e-003 1.517800e-002 -1.937932e-001 -9.697960e-001 1.481214e-001
2.401239e-002 -2.848734e-002 1.517800e-002 -9.184183e-001 3.638595e-001 -1.552868e-001
2.401239e-002 -2.650469e-002 1.517800e-002 -9.846298e-001 5.420215e-002 -1.660311e-001
2.401239e-002 -2.152314e-002 1.517800e-002 1.503193e-001 7.818571e-001 6.050649e-001
2.401239e-002 -2.595137e-003 1.517800e-002 -2.585801e-002 2.733445e-001 9.615686e-001
2.401239e-002 -2.523406e-003 1.517800e-002 -1.963971e-002 2.851067e-001 9.582945e-001
2.401239e-002 5.962401e-003 1.517800e-002 -7.978096e-002 -9.911472e-001 1.061241e-001
2.684799e-002 -2.290106e-002 1.517800e-002 -7.137173e-001 6.980568e-001 5.765650e-002
2.684799e-002 5.517723e-003 1.517800e-002 -8.747334e-002 -9.909984e-001 1.013438e-001
2.968359e-002 -1.745128e-002 1.517800e-002 -6.490884e-001 5.698045e-001 5.039909e-001
2.968359e-002 3.447142e-003 1.517800e-002 -3.201489e-001 -9.316931e-001 1.716175e-001
3.251919e-002 -1.179476e-002 1.517800e-002 -6.988344e-001 7.026181e-001 1.340086e-001
3.251919e-002 -6.552252e-004 1.517800e-002 -8.277041e-001 -4.326708e-001 3.573540e-001
3.535479e-002 -3.823329e-003 1.517800e-002 -8.625331e-001 4.253885e-001 -2.740095e-001
3.535479e-002 -3.269006e-004 1.517800e-002 -9.702306e-001 -2.420845e-001 6.901795e-003
-1.659728e-001 -3.377474e-002 1.801360e-002 -4.507458e-003 6.862038e-003 -9.999663e-001
-1.659728e-001 -3.370625e-002 1.801360e-002 -4.478240e-003 -1.677925e-002 -9.998492e-001
-1.517948e-001 -2.573886e-002 1.801360e-002 -1.630960e-002 9.997884e-001 -1.253385e-002
-1.517948e-001 -2.472997e-002 1.801360e-002 -1.436480e-002 -9.998372e-001 -1.092038e-002
-5.538441e-002 2.569478e-002 1.801360e-002 6.085931e-001 7.903790e-001 7.011016e-002
-5.538441e-002 2.914912e-002 1.801360e-002 5.505310e-001 -8.304872e-001 8.489260e-002
-5.254880e-002 2.287423e-002 1.801360e-002 8.309987e-001 5.519273e-001 6.940872e-002
-5.254880e-002 2.362370e-002 1.801360e-002 8.515134e-001 5.240437e-001 1.740973e-002
-4.971320e-002 1.992645e-002 1.801360e-002 6.571079e-001 7.402011e-001 1.425188e-001
-4.971320e-002 2.490093e-002 1.801360e-002 -1.563264e-001 -9.046833e-001 3.963713e-001
-4.971320e-002 3.071955e-002 1.801360e-002 9.365877e-001 -3.476323e-001 4.421866e-002
-4.971320e-002 3.179236e-002 1.801360e-002 8.549300e-001 -5.187427e-001 8.411912e-004
-4.687760e-002 1.425875e-002 1.801360e-002 6.945097e-001 7.165210e-001 6.522269e-002
-4.687760e-002 1.999738e-002 1.801360e-002 4.525975e-002 -9.265452e-001 3.734509e-001
-4.687760e-002 2.666519e-002 1.801360e-002 3.372572e-001 9.400653e-001 5.034551e-002
-4.687760e-002 3.490781e-002 1.801360e-002 7.027084e-001 -7.067409e-001 8.196499e-002
-4.404201e-002 1.153350e-002 1.801360e-002 6.848801e-001 7.262098e-001 5.965245e-002
-4.404201e-002 2.086869e-002 1.801360e-002 3.894487e-002 -9.908384e-001 1.293160e-001
-4.404201e-002 2.683069e-002 1.801360e-002 -1.725960e-001 8.941743e-001 -4.131137e-001
-4.404201e-002 3.777004e-002 1.801360e-002 7.298449e-001 -6.796159e-001 7.381471e-002
-4.120640e-002 1.101637e-002 1.801360e-002 -4.940781e-001 8.661522e-001 7.528074e-002
-4.120640e-002 1.494081e-002 1.801360e-002 -8.183826e-001 -5.191371e-001 -2.464684e-001
-4.120640e-002 2.108779e-002 1.801360e-002 -1.223132e-001 7.692261e-001 6.271608e-001
-4.120640e-002 2.536838e-002 1.801360e-002 5.710645e-001 -7.969469e-001 1.968781e-001
-4.120640e-002 2.890447e-002 1.801360e-002 -4.735274e-001 8.313399e-001 2.909395e-001
-4.120640e-002 4.054307e-002 1.801360e-002 5.912871e-001 -8.012376e-001 9.163990e-002
-3.837080e-002 2.151743e-002 1.801360e-002 -6.732036e-001 6.005971e-001 4.313701e-001
-3.837080e-002 4.041665e-002 1.801360e-002 1.139804e-001 -9.910062e-001 7.010820e-002
-3.553521e-002 1.709152e-002 1.801360e-002 4.291390e-001 8.996891e-001 -7.999563e-002
-3.553521e-002 1.782862e-002 1.801360e-002 6.002119e-001 7.881978e-001 -1.359776e-001
-3.553521e-002 2.406246e-002 1.801360e-002 -3.885124e-001 9.165990e-001 -9.436344e-002
-3.553521e-002 4.442290e-002 1.801360e-002 7.709045e-001 -6.364704e-001 2.473290e-002
-3.269961e-002 1.682708e-002 1.801360e-002 -5.593343e-001 6.070288e-001 5.645008e-001
-3.269961e-002 1.856928e-002 1.801360e-002 -4.748441e-001 4.191931e-001 7.738218e-001
-3.269961e-002 2.498432e-002 1.801360e-002 -3.399402e-001 9.201515e-001 -1.943236e-001
-3.269961e-002 4.633659e-002 1.801360e-002 5.589994e-001 -8.195572e-001 1.258795e-001
-2.986401e-002 1.957036e-002 1.801360e-002 -2.657208e-002 9.902185e-001 1.369718e-001
-2.986401e-002 2.940687e-002 1.801360e-002 -5.024127e-001 -8.421547e-001 1.958495e-001
-2.986401e-002 3.650974e-002 1.801360e-002 4.676367e-001 8.827812e-001 -4.486874e-002
-2.986401e-002 4.979122e-002 1.801360e-002 7.539605e-001 -6.501440e-001 9.410847e-002
-2.702841e-002 2.007844e-002 1.801360e-002 -2.874314e-001 9.559906e-001 5.886637e-002
-2.702841e-002 2.819637e-002 1.801360e-002 -2.744063e-001 -9.454277e-001 1.756923e-001
-2.702841e-002 3.241953e-002 1.801360e-002 -8.256325e-001 5.543658e-001 1.049270e-001
-2.702841e-002 5.189661e-002 1.801360e-002 4.870516e-001 -8.626157e-001 1.366561e-001
-2.419281e-002 2.234087e-002 1.801360e-002 -5.808161e-001 8.076870e-001 1.014606e-001
-2.419281e-002 2.800599e-002 1.801360e-002 -2.101886e-001 -9.676177e-001 1.397740e-001
-2.419281e-002 4.125038e-002 1.801360e-002 5.618402e-002 8.332096e-001 -5.500955e-001
-2.419281e-002 5.485098e-002 1.801360e-002 3.942211e-001 -6.218690e-001 6.766600e-001
-2.135721e-002 4.013122e-002 1.801360e-002 4.690352e-001 7.945687e-001 3.855731e-001
-2.135721e-002 5.224643e-002 1.801360e-002 -6.736204e-001 -5.751178e-001 4.641928e-001
-1.852161e-002 2.806281e-002 1.801360e-002 -6.126826e-001 3.122929e-001 7.260119e-001
-1.852161e-002 2.934500e-002 1.801360e-002 -3.563013e-001 -9.634573e-002 9.293906e-001
-1.852161e-002 3.900606e-002 1.801360e-002 -1.008133e-001 9.909577e-001 8.854140e-002
-1.852161e-002 5.079615e-002 1.801360e-002 -4.026252e-001 -8.882734e-001 2.210505e-001
-1.568601e-002 3.093078e-002 1.801360e-002 -6.985093e-001 6.787633e-001 2.266389e-001
-1.568601e-002 3.214243e-002 1.801360e-002 4.603952e-001 -3.729559e-001 8.055682e-001
-1.568601e-002 4.207928e-002 1.801360e-002 -4.934182e-001 7.503137e-001 4.399635e-001
-1.568601e-002 4.830625e-002 1.801360e-002 -8.875654e-001 -4.234917e-001 1.813353e-001
-1.285041e-002 3.375593e-002 1.801360e-002 -3.388655e-001 9.351304e-001 1.034471e-001
-1.285041e-002 4.418759e-002 1.801360e-002 -5.866311e-001 -7.626060e-001 2.725732e-001
-1.001481e-002 3.667448e-002 1.801360e-002 -8.135449e-001 5.760567e-001 7.939356e-002
-1.001481e-002 3.940925e-002 1.801360e-002 -9.785790e-001 -8.466588e-002 1.876561e-001
-4.343607e-003 -1.991171e-002 1.801360e-002 7.571218e-001 6.525771e-001 3.016235e-002
-4.343607e-003 -1.304030e-002 1.801360e-002 7.861583e-001 -6.179588e-001 -9.054710e-003
-1.508007e-003 -2.291954e-002 1.801360e-002 6.448339e-001 7.601554e-001 7.970656e-002
-1.508007e-003 -8.688087e-003 1.801360e-002 9.315939e-001 -3.474680e-001 1.067654e-001
1.327593e-003 -2.309363e-002 1.801360e-002 2.511214e-001 9.678419e-001 1.483063e-002
1.327593e-003 1.084225e-003 1.801360e-002 6.009825e-001 -7.090065e-001 -3.689577e-001
1.327593e-003 1.699972e-002 1.801360e-002 -4.122889e-003 9.078319e-002 9.958622e-001
1.327593e-003 1.759490e-002 1.801360e-002 -3.824680e-003 -1.303909e-001 9.914553e-001
4.163193e-003 -2.573346e-002 1.801360e-002 6.036265e-001 7.968318e-001 2.634370e-002
4.163193e-003 -3.914815e-003 1.801360e-002 -4.111190e-001 -8.858851e-001 -2.149158e-001
4.163193e-003 2.465401e-003 1.801360e-002 8.002142e-001 5.191427e-001 3.002467e-001
4.163193e-003 6.611960e-003 1.801360e-002 7.779705e-001 -6.043439e-001 -1.718441e-001
6.998793e-003 -2.578403e-002 1.801360e-002 2.118352e-001 9.763957e-001 4.215764e-002
6.998793e-003 -4.134783e-003 1.801360e-002 2.681535e-001 -9.552090e-001 -1.251773e-001
6.998793e-003 1.873887e-003 1.801360e-002 3.030999e-001 8.432297e-001 4.439528e-001
6.998793e-003 9.117421e-003 1.801360e-002 7.333084e-001 -6.769528e-001 -6.319586e-002
9.834393e-003 -2.859368e-002 1.801360e-002 4.901151e-001 7.096063e-001 5.062075e-001
9.834393e-003 -1.122859e-002 1.801360e-002 8.702658e-001 -1.759582e-001 4.600827e-001
9.834393e-003 -1.080309e-002 1.801360e-002 8.257864e-001 2.057521e-002 5.636075e-001
9.834393e-003 1.049333e-002 1.801360e-002 2.886080e-001 -9.513133e-001 1.082052e-001
1.266999e-002 -2.841961e-002 1.801360e-002 1.528834e-002 9.995657e-001 2.519218e-002
1.266999e-002 9.581796e-003 1.801360e-002 -8.362384e-001 -5.307216e-001 1.379852e-001
1.550559e-002 -2.865818e-002 1.801360e-002 2.542828e-001 9.591463e-001 1.240105e-001
1.550559e-002 6.826188e-003 1.801360e-002 -2.230390e-001 -9.713242e-001 8.235794e-002
1.834119e-002 -3.155134e-002 1.801360e-002 3.615640e-001 9.310839e-001 4.851898e-002
1.834119e-002 6.672133e-003 1.801360e-002 -1.676250e-001 -9.831744e-001 7.259374e-002
2.117679e-002 -2.957568e-002 1.801360e-002 -2.669162e-001 9.506319e-001 -1.582869e-001
2.117679e-002 6.321647e-003 1.801360e-002 -1.757771e-001 -9.808012e-001 8.444709e-002
2.401239e-002 -3.128899e-002 1.801360e-002 -5.460067e-001 7.631203e-001 -3.457224e-001
2.401239e-002 -2.953744e-002 1.801360e-002 -9.193552e-001 3.201856e-001 -2.286201e-001
2.401239e-002 -2.437430e-002 1.801360e-002 -9.527967e-001 2.563913e-001 1.626100e-001
2.401239e-002 6.148957e-003 1.801360e-002 -8.889551e-002 -9.931936e-001 7.526027e-002
2.684799e-002 -1.724238e-002 1.801360e-002 4.299776e-002 9.979219e-001 -4.798914e-002
2.684799e-002 -1.401485e-002 1.801360e-002 -6.233400e-001 7.594675e-001 1.861621e-001
2.684799e-002 -1.386641e-002 1.801360e-002 -6.543373e-001 7.300207e-001 1.972626e-001
2.684799e-002 6.016700e-003 1.801360e-002 -9.115227e-002 -9.947091e-001 4.738231e-002
2.968359e-002 -1.757380e-002 1.801360e-002 -7.271774e-001 6.636523e-001 1.754382e-001
2.968359e-002 -1.461297e-002 1.801360e-002 -9.964465e-001 -4.973180e-002 -6.797837e-002
2.968359e-002 -1.187349e-002 1.801360e-002 -9.829964e-001 6.929964e-002 1.700461e-001
2.968359e-002 4.605377e-003 1.801360e-002 -1.895936e-001 -9.799407e-001 6.140430e-002
3.251919e-002 -2.581357e-003 1.801360e-002 -6.780940e-001 7.349228e-001 -8.772840e-003
3.251919e-002 -2.198163e-003 1.801360e-002 -7.483248e-001 6.632254e-001 1.192176e-002
-1.659728e-001 -3.374040e-002 1.504975e-002 -1.601555e-003 -2.202652e-003 9.999963e-001
-1.659728e-001 -3.374040e-002 1.804776e-002 -4.379096e-003 -4.869222e-003 -9.999785e-001
-1.517948e-001 -2.523360e-002 1.750836e-002 -1.615450e-002 -1.677236e-002 9.997288e-001
-1.517948e-001 -2.523360e-002 1.851760e-002 -7.367093e-003 -7.623659e-003 -9.999438e-001
-5.538441e-002 2.580719e-002 1.559896e-002 7.359377e-001 6.736882e-001 6.737864e-002
-5.538441e-002 2.864279e-002 1.463607e-002 7.011966e-001 -5.348774e-001 4.714122e-001
-5.254880e-002 2.297159e-002 1.636075e-002 7.533059e-001 6.540393e-001 6.901273e-002
-5.254880e-002 2.580719e-002 1.207143e-002 3.507875e-001 5.364214e-001 7.675937e-001
-5.254880e-002 2.580719e-002 1.721730e-002 -4.530462e-001 -4.563229e-001 -7.658450e-001
-5.254880e-002 2.864279e-002 8.945380e-003 7.521809e-001 -6.061029e-001 2.585791e-001
-5.254880e-002 2.864279e-002 1.641309e-002 -3.355696e-001 -9.130992e-001 -2.316091e-001
-5.254880e-002 2.864279e-002 1.934753e-002 -3.593191e-001 -7.454617e-001 5.614060e-001
-4.971320e-002 2.013599e-002 1.597982e-002 6.339929e-001 7.667547e-001 1.006994e-001
-4.971320e-002 2.297159e-002 8.584714e-003 -1.090624e-001 1.216644e-001 9.865613e-001
-4.971320e-002 2.580719e-002 1.060355e-002 -6.759518e-002 -5.975957e-001 7.989432e-001
-4.971320e-002 2.580719e-002 1.439681e-002 -5.532047e-001 -6.892369e-001 -4.678859e-001
-4.971320e-002 2.580719e-002 1.895577e-002 1.090014e-002 -6.212213e-001 7.835593e-001
-4.971320e-002 3.147839e-002 8.182839e-003 6.908973e-001 -7.022126e-001 1.719251e-001
-4.687760e-002 1.446479e-002 1.587548e-002 6.527382e-001 6.700821e-001 3.534441e-001
-4.687760e-002 1.730039e-002 8.444693e-003 6.989990e-001 5.962148e-001 3.948775e-001
-4.687760e-002 2.013599e-002 1.836890e-002 3.261893e-002 -9.137959e-001 4.048617e-001
-4.687760e-002 2.297159e-002 1.974494e-002 -5.758006e-001 -1.591666e-001 8.019474e-001
-4.687760e-002 2.580719e-002 1.467215e-002 -1.262374e-002 9.940791e-001 -1.079234e-001
-4.687760e-002 2.580719e-002 1.544855e-002 7.051803e-002 9.860944e-001 -1.504833e-001
-4.687760e-002 2.580719e-002 1.970316e-002 -5.255964e-001 4.860640e-001 6.982050e-001
-4.687760e-002 2.864279e-002 3.023830e-003 5.275008e-001 6.207432e-001 5.800179e-001
-4.687760e-002 2.864279e-002 9.064679e-003 7.243056e-001 5.516164e-001 -4.136432e-001
-4.687760e-002 2.864279e-002 1.238552e-002 5.655972e-001 1.808727e-001 8.046023e-001
-4.687760e-002 3.147839e-002 1.256660e-002 -4.410428e-001 3.061440e-001 8.436570e-001
-4.687760e-002 3.431400e-002 1.014359e-002 6.806507e-001 -7.258379e-001 9.936817e-002
-4.404201e-002 1.162919e-002 1.608420e-002 6.741602e-001 7.360420e-001 6.123870e-002
-4.404201e-002 1.446479e-002 6.230884e-003 9.252819e-001 -4.277035e-002 3.768609e-001
-4.404201e-002 1.446479e-002 7.701732e-003 9.790233e-001 -6.871179e-002 1.918124e-001
-4.404201e-002 1.446479e-002 1.143072e-002 9.662186e-001 -2.929119e-002 2.560540e-001
-4.404201e-002 1.730039e-002 1.382408e-002 -8.554080e-001 1.563966e-001 4.937786e-001
-4.404201e-002 2.013599e-002 1.120775e-002 -2.196536e-002 4.860054e-001 8.736798e-001
-4.404201e-002 2.297159e-002 8.627148e-003 -2.045381e-002 3.627407e-001 9.316656e-001
-4.404201e-002 2.297159e-002 1.703238e-002 6.163694e-001 -5.506892e-001 -5.628767e-001
-4.404201e-002 2.864279e-002 3.796289e-003 -7.600002e-001 1.267550e-001 6.374424e-001
-4.404201e-002 3.147839e-002 1.074992e-002 4.728020e-001 -7.315811e-001 4.911694e-001
-4.404201e-002 3.431400e-002 1.306678e-002 -6.393898e-001 2.638609e-001 7.221898e-001
-4.404201e-002 3.714959e-002 8.567316e-003 7.630847e-001 -6.356373e-001 1.169060e-001
-4.120640e-002 1.162919e-002 9.413913e-003 -5.337113e-001 8.400770e-001 9.707147e-002
