ply
format ascii 1.0
comment Written by HALCON (export v1.0)
element vertex 554
property float x
property float y
property float z
property float nx
property float ny
property float nz
end_header
-1.302050e-002 3.434504e-002 1.326095e-002 -8.817866e-001 2.586292e-001 3.944150e-001
-9.955259e-003 3.682074e-002 1.326095e-002 -4.325864e-001 9.492861e-002 8.965811e-001
-9.955259e-003 3.714812e-002 1.326095e-002 -4.063267e-001 2.928629e-003 9.137232e-001
-6.890021e-003 -1.819535e-002 1.326095e-002 8.087514e-001 1.041040e-001 -5.788640e-001
-6.890021e-003 -1.819411e-002 1.326095e-002 8.087508e-001 1.038198e-001 -5.789158e-001
-3.824783e-003 -2.162446e-002 1.326095e-002 6.589338e-001 7.511537e-001 3.967797e-002
-3.824783e-003 -1.706434e-002 1.326095e-002 8.399722e-001 -5.362466e-001 8.298371e-002
-3.824783e-003 -1.332142e-002 1.326095e-002 9.469884e-001 -2.077015e-001 2.450981e-001
-3.824783e-003 -1.146894e-002 1.326095e-002 8.705196e-001 -4.108380e-001 2.709385e-001
-7.595455e-004 -2.155751e-002 1.326095e-002 1.800931e-002 9.956076e-001 9.187589e-002
-7.595455e-004 -1.843625e-002 1.326095e-002 -6.368597e-001 -1.105762e-001 7.630090e-001
-7.595455e-004 -1.200482e-002 1.326095e-002 -4.899762e-001 8.717132e-001 -6.285619e-003
-7.595455e-004 -5.099747e-003 1.326095e-002 6.642573e-001 -7.393083e-001 -1.103879e-001
2.305692e-003 -2.466039e-002 1.326095e-002 5.605203e-001 6.274339e-001 5.405032e-001
2.305692e-003 -2.010300e-002 1.326095e-002 -6.829651e-001 -4.429840e-001 5.807959e-001
2.305692e-003 -1.616942e-002 1.326095e-002 -5.865892e-001 3.759007e-001 7.173645e-001
2.305692e-003 -7.534583e-003 1.326095e-002 -7.832897e-001 -1.863597e-001 5.930661e-001
5.370930e-003 -2.467671e-002 1.326095e-002 -5.737218e-002 9.965242e-001 -6.039920e-002
5.370930e-003 -2.214603e-002 1.326095e-002 -9.534205e-001 3.012033e-001 -1.630952e-002
5.370930e-003 -2.214377e-003 1.326095e-002 6.466999e-001 7.263337e-001 2.328488e-001
5.370930e-003 9.009762e-003 1.326095e-002 7.673454e-001 -6.392926e-001 4.986077e-002
8.436168e-003 -2.446269e-002 1.326095e-002 -1.910581e-002 9.766774e-001 2.138605e-001
8.436168e-003 -2.231345e-002 1.326095e-002 3.456368e-003 6.979944e-001 7.160949e-001
8.436168e-003 -5.387668e-003 1.326095e-002 2.353245e-001 5.052032e-001 8.302965e-001
8.436168e-003 1.393389e-003 1.326095e-002 -7.625686e-001 -5.397180e-001 3.566420e-001
8.436168e-003 6.210017e-003 1.326095e-002 -6.594304e-001 5.107473e-001 5.516238e-001
8.436168e-003 1.200318e-002 1.326095e-002 9.088246e-001 -3.810834e-001 1.697451e-001
1.150141e-002 -2.756304e-002 1.326095e-002 6.220623e-001 7.744439e-001 1.152181e-001
1.150141e-002 -2.187509e-002 1.326095e-002 5.507122e-001 -3.773208e-001 7.445436e-001
1.150141e-002 -7.316027e-003 1.326095e-002 2.558082e-001 2.504130e-001 9.337320e-001
1.150141e-002 -1.607367e-003 1.326095e-002 -7.211113e-001 -3.800421e-001 5.792810e-001
1.150141e-002 8.631732e-003 1.326095e-002 -2.757636e-001 9.424842e-001 1.888863e-001
1.150141e-002 1.324446e-002 1.326095e-002 3.369179e-001 -5.653058e-001 7.529380e-001
1.456664e-002 -2.759033e-002 1.326095e-002 4.996305e-002 9.924114e-001 -1.123532e-001
1.456664e-002 -1.921570e-002 1.326095e-002 -3.022435e-001 -9.223341e-001 2.407252e-001
1.456664e-002 -7.542988e-003 1.326095e-002 -2.685884e-002 6.200969e-001 7.840654e-001
1.456664e-002 -2.391265e-003 1.326095e-002 1.939062e-001 -8.851798e-001 4.229150e-001
1.456664e-002 3.152431e-003 1.326095e-002 9.681751e-002 9.590313e-001 2.662431e-001
1.456664e-002 1.313188e-002 1.326095e-002 -2.737189e-001 -6.022769e-001 7.498937e-001
1.763188e-002 -3.091566e-002 1.326095e-002 6.678376e-001 7.397987e-001 8.179773e-002
1.763188e-002 -2.653291e-002 1.326095e-002 -5.055369e-001 -8.301883e-001 2.349891e-001
1.763188e-002 -1.335252e-002 1.326095e-002 6.408948e-001 4.527464e-001 6.198989e-001
1.763188e-002 -1.015091e-002 1.326095e-002 6.344693e-001 -4.785446e-002 7.714652e-001
1.763188e-002 -6.934587e-003 1.326095e-002 -6.414672e-001 3.547802e-001 6.801844e-001
1.763188e-002 2.715913e-003 1.326095e-002 -6.448400e-001 1.890342e-001 7.405724e-001
1.763188e-002 3.623291e-003 1.326095e-002 -8.068921e-001 2.597533e-001 5.305218e-001
1.763188e-002 1.094961e-002 1.326095e-002 -9.677052e-001 -1.906998e-001 1.648638e-001
2.069712e-002 -3.100487e-002 1.326095e-002 -5.636358e-001 7.663497e-001 -3.082577e-001
2.069712e-002 -2.771440e-002 1.326095e-002 -7.412899e-001 -6.215477e-001 -2.533138e-001
2.069712e-002 -2.400035e-002 1.326095e-002 4.028365e-002 8.467012e-001 5.305415e-001
2.069712e-002 -9.544550e-003 1.326095e-002 4.073783e-001 -6.451876e-001 6.463559e-001
2.069712e-002 -3.989058e-003 1.326095e-002 7.605515e-001 2.711388e-001 5.899536e-001
2.069712e-002 -1.600211e-003 1.326095e-002 -2.474678e-001 -3.651723e-001 8.974458e-001
2.376236e-002 -1.737827e-002 1.326095e-002 -4.901607e-001 6.717101e-001 5.554709e-001
2.376236e-002 -1.410953e-003 1.326095e-002 3.875123e-001 -4.149410e-001 8.231999e-001
2.376236e-002 1.954703e-003 1.326095e-002 6.641543e-001 -5.798022e-002 7.453438e-001
2.376236e-002 4.533117e-003 1.326095e-002 3.011846e-001 -9.414357e-001 1.516134e-001
2.682759e-002 -2.240294e-002 1.326095e-002 -4.648026e-001 2.634260e-001 8.453197e-001
2.682759e-002 -2.010323e-002 1.326095e-002 -5.140611e-001 8.304085e-002 8.537245e-001
2.682759e-002 -1.681986e-002 1.326095e-002 -5.566404e-001 5.118552e-001 6.543361e-001
2.682759e-002 -1.110649e-002 1.326095e-002 -5.722488e-001 -6.225986e-001 5.337623e-001
2.682759e-002 -4.472570e-003 1.326095e-002 -6.155065e-001 4.872217e-001 6.194891e-001
2.682759e-002 2.757162e-003 1.326095e-002 -3.949413e-001 -8.846982e-001 2.476498e-001
2.989283e-002 -1.548283e-002 1.326095e-002 -9.445140e-001 2.126362e-001 2.503580e-001
2.989283e-002 -1.414256e-002 1.326095e-002 -9.736277e-001 9.542195e-002 2.072287e-001
2.989283e-002 -1.717937e-003 1.326095e-002 -3.307036e-001 5.139959e-001 7.914817e-001
2.989283e-002 2.571916e-003 1.326095e-002 -4.807824e-001 -8.167868e-001 3.189160e-001
3.602331e-002 -3.529815e-003 1.326095e-002 -4.192807e-001 6.547464e-001 6.288965e-001
3.602331e-002 -1.140689e-003 1.326095e-002 -4.681436e-001 -3.361852e-003 8.836460e-001
3.602331e-002 6.744082e-002 1.326095e-002 -9.648977e-003 6.283848e-002 -9.979771e-001
3.602331e-002 6.782147e-002 1.326095e-002 -9.768099e-003 -7.900392e-002 -9.968265e-001
7.893664e-002 1.010704e-001 1.326095e-002 -2.812612e-002 9.992667e-001 -2.597784e-002
7.893664e-002 1.016280e-001 1.326095e-002 -2.591883e-002 -9.993815e-001 -2.376604e-002
-5.593383e-002 2.729635e-002 1.632619e-002 9.603536e-001 2.563041e-001 1.096773e-001
-5.593383e-002 2.833412e-002 1.632619e-002 9.903775e-001 -9.459558e-002 1.010155e-001
-5.286859e-002 2.164758e-002 1.632619e-002 7.495179e-001 6.536254e-001 1.048655e-001
-5.286859e-002 2.171528e-002 1.632619e-002 7.545529e-001 6.475618e-001 1.063654e-001
-5.286859e-002 2.605039e-002 1.632619e-002 8.972126e-001 3.231810e-001 3.009380e-001
-5.286859e-002 3.132505e-002 1.632619e-002 6.103166e-001 -7.483479e-001 2.597865e-001
-4.980335e-002 1.856224e-002 1.632619e-002 7.391437e-001 6.691396e-001 7.693399e-002
-4.980335e-002 3.140362e-002 1.632619e-002 9.540987e-002 -9.952505e-001 1.932548e-002
-4.673811e-002 1.550144e-002 1.632619e-002 6.433177e-001 7.599465e-001 9.286417e-002
-4.673811e-002 2.430188e-002 1.632619e-002 7.351472e-001 5.808159e-002 6.754148e-001
-4.673811e-002 2.498664e-002 1.632619e-002 5.649648e-001 2.531213e-001 7.853307e-001
-4.673811e-002 3.242748e-002 1.632619e-002 8.386631e-001 -5.400303e-001 -7.079183e-002
-4.367287e-002 1.696863e-002 1.632619e-002 -6.578093e-001 3.085970e-001 6.870625e-001
-4.367287e-002 3.755218e-002 1.632619e-002 3.361750e-001 -9.337129e-001 1.231527e-001
-4.060763e-002 1.183690e-002 1.632619e-002 -5.971445e-001 8.020480e-001 1.172464e-002
-4.060763e-002 1.395088e-002 1.632619e-002 -8.969772e-001 2.564060e-001 3.601222e-001
-4.060763e-002 2.398993e-002 1.632619e-002 -9.247808e-001 3.581562e-001 1.284695e-001
-4.060763e-002 2.618325e-002 1.632619e-002 -9.212329e-001 2.369002e-004 3.890114e-001
-4.060763e-002 3.369008e-002 1.632619e-002 -6.818507e-001 5.764501e-002 7.292165e-001
-4.060763e-002 3.413983e-002 1.632619e-002 -6.828727e-001 6.256701e-002 7.278532e-001
-4.060763e-002 3.847259e-002 1.632619e-002 7.082900e-001 1.769139e-001 6.833935e-001
-4.060763e-002 4.127189e-002 1.632619e-002 8.304766e-001 -5.388379e-001 1.412885e-001
-3.754240e-002 1.582381e-002 1.632619e-002 -5.794677e-001 7.662877e-001 2.775253e-001
-3.754240e-002 1.900991e-002 1.632619e-002 -5.463971e-001 -8.253523e-001 1.422804e-001
-3.754240e-002 2.714712e-002 1.632619e-002 2.463228e-001 9.548333e-001 1.661878e-001
-3.754240e-002 2.952753e-002 1.632619e-002 8.853369e-001 2.585467e-001 3.864351e-001
-3.754240e-002 4.161261e-002 1.632619e-002 -1.426823e-001 -8.646437e-001 4.816981e-001
-3.754240e-002 4.359384e-002 1.632619e-002 1.890885e-001 -9.716321e-001 1.420447e-001
-3.447716e-002 2.693785e-002 1.632619e-002 -2.970631e-002 9.932349e-001 1.122577e-001
-3.447716e-002 3.562740e-002 1.632619e-002 4.201362e-001 -5.953608e-001 6.848584e-001
-3.141192e-002 1.813343e-002 1.632619e-002 -2.182317e-001 9.417844e-001 2.557674e-001
-3.141192e-002 1.921704e-002 1.632619e-002 5.268657e-001 5.520275e-001 6.462803e-001
-3.141192e-002 2.726220e-002 1.632619e-002 2.436048e-002 9.896207e-001 1.416241e-001
-3.141192e-002 3.604965e-002 1.632619e-002 1.529515e-001 -4.063539e-001 9.008232e-001
-3.141192e-002 4.026616e-002 1.632619e-002 1.847551e-001 3.731252e-001 9.091992e-001
-3.141192e-002 4.675010e-002 1.632619e-002 5.846707e-001 -8.049910e-001 1.007454e-001
-2.834669e-002 2.116481e-002 1.632619e-002 3.465034e-001 9.320737e-001 1.057071e-001
-2.834669e-002 3.674996e-002 1.632619e-002 7.976888e-001 -5.895451e-001 1.270009e-001
-2.834669e-002 4.042488e-002 1.632619e-002 5.189505e-001 7.737592e-001 3.633002e-001
-2.834669e-002 4.466296e-002 1.632619e-002 -7.418563e-001 -3.064752e-001 5.964246e-001
-2.834669e-002 4.770441e-002 1.632619e-002 6.451038e-001 -7.631618e-001 3.775174e-002
-2.834669e-002 4.978970e-002 1.632619e-002 7.935039e-001 -6.047544e-001 6.799640e-002
-2.528145e-002 2.161879e-002 1.632619e-002 -2.528723e-001 9.630888e-001 9.228101e-002
-2.528145e-002 4.398461e-002 1.632619e-002 5.632543e-001 -7.755879e-001 2.849705e-001
-2.528145e-002 4.837169e-002 1.632619e-002 1.171175e-001 9.720964e-001 2.032536e-001
-2.528145e-002 5.280428e-002 1.632619e-002 6.193021e-001 -7.830348e-001 5.763175e-002
-2.221621e-002 2.483359e-002 1.632619e-002 -7.696880e-001 5.772853e-001 2.726208e-001
-2.221621e-002 5.265156e-002 1.632619e-002 -3.069561e-001 -7.716817e-001 -5.570325e-001
-1.915097e-002 2.868091e-002 1.632619e-002 -9.645858e-001 2.303270e-001 1.285443e-001
-1.915097e-002 3.401089e-002 1.632619e-002 -9.375592e-001 -3.217351e-001 1.321718e-001
-1.915097e-002 3.993322e-002 1.632619e-002 -9.451214e-001 3.133323e-001 -9.256591e-002
-1.915097e-002 4.591279e-002 1.632619e-002 -7.143512e-001 -3.540840e-001 6.035949e-001
-1.915097e-002 4.688502e-002 1.632619e-002 -6.160138e-001 -4.814111e-001 6.235145e-001
-1.915097e-002 4.982532e-002 1.632619e-002 -6.528741e-001 -7.346261e-001 1.846078e-001
-1.608573e-002 3.028734e-002 1.632619e-002 -8.440883e-001 5.260596e-001 1.038082e-001
-1.608573e-002 3.195817e-002 1.632619e-002 -9.763287e-001 7.690713e-002 2.021571e-001
-1.608573e-002 4.591588e-002 1.632619e-002 -3.420164e-001 8.671288e-001 3.620945e-001
-1.608573e-002 4.697234e-002 1.632619e-002 -5.885821e-001 6.551020e-001 4.737221e-001
-1.302050e-002 3.341884e-002 1.632619e-002 -5.749735e-001 8.111990e-001 1.065909e-001
-1.302050e-002 3.703969e-002 1.632619e-002 5.576201e-001 -5.992346e-001 5.744369e-001
-1.302050e-002 4.297082e-002 1.632619e-002 -2.286758e-001 3.715047e-001 8.998287e-001
-1.302050e-002 4.350913e-002 1.632619e-002 -2.744287e-001 3.389813e-001 8.998781e-001
-9.955259e-003 3.657221e-002 1.632619e-002 -9.810988e-001 1.400311e-001 1.335528e-001
-9.955259e-003 3.738671e-002 1.632619e-002 -9.800166e-001 -1.113946e-001 1.647988e-001
-3.824783e-003 -2.157976e-002 1.632619e-002 6.662896e-001 7.442746e-001 4.597193e-002
-3.824783e-003 -1.566330e-002 1.632619e-002 9.509714e-001 6.414589e-002 3.025538e-001
-3.824783e-003 -1.484718e-002 1.632619e-002 9.539024e-001 3.186470e-002 2.984208e-001
-3.824783e-003 -1.139349e-002 1.632619e-002 7.529832e-001 -6.178856e-001 -2.263487e-001
-7.595455e-004 -2.154018e-002 1.632619e-002 8.279794e-002 9.955282e-001 4.547552e-002
-7.595455e-004 -1.567202e-002 1.632619e-002 -1.793840e-001 -9.759013e-001 1.242497e-001
-7.595455e-004 -1.136453e-002 1.632619e-002 3.126082e-001 9.485152e-001 5.094281e-002
-7.595455e-004 -5.075858e-003 1.632619e-002 6.764189e-001 -7.339613e-001 -6.130470e-002
2.305692e-003 -2.479328e-002 1.632619e-002 5.380550e-001 8.412353e-001 5.310381e-002
2.305692e-003 -1.878894e-002 1.632619e-002 -4.507497e-001 -3.939776e-001 8.010033e-001
2.305692e-003 -1.351972e-002 1.632619e-002 7.101021e-001 6.881818e-001 1.488652e-001
2.305692e-003 -4.188668e-003 1.632619e-002 8.530660e-001 -5.196437e-001 4.742207e-002
2.305692e-003 -1.604079e-003 1.632619e-002 9.984259e-001 -4.618210e-002 3.182432e-002
2.305692e-003 1.229299e-003 1.632619e-002 9.571505e-001 -2.895778e-001 -2.777620e-003
5.370930e-003 -2.228945e-002 1.632619e-002 -6.764303e-002 8.423252e-001 5.347081e-001
5.370930e-003 -1.984217e-002 1.632619e-002 3.869784e-002 1.191563e-001 9.921211e-001
5.370930e-003 -1.722421e-002 1.632619e-002 -8.628629e-003 2.528075e-001 9.674781e-001
5.370930e-003 -9.109346e-003 1.632619e-002 -4.611615e-001 -5.273482e-001 7.136063e-001
5.370930e-003 1.609202e-003 1.632619e-002 -3.284302e-001 1.954737e-001 -9.240799e-001
5.370930e-003 3.989580e-003 1.632619e-002 9.533471e-001 -2.994464e-001 -3.822542e-002
8.436168e-003 -2.801361e-002 1.632619e-002 5.411819e-001 6.642677e-001 5.156264e-001
8.436168e-003 -1.826173e-002 1.632619e-002 2.069388e-001 -9.018344e-001 3.793035e-001
8.436168e-003 -1.293747e-002 1.632619e-002 -3.108516e-001 6.861245e-001 6.577267e-001
8.436168e-003 -1.936175e-003 1.632619e-002 4.222976e-001 -8.978701e-001 -1.244755e-001
8.436168e-003 2.856573e-003 1.632619e-002 -6.500047e-002 5.694271e-001 8.194680e-001
8.436168e-003 1.307093e-002 1.632619e-002 9.362699e-001 -3.353861e-001 1.044737e-001
1.150141e-002 -2.793487e-002 1.632619e-002 -1.779721e-001 9.770179e-001 1.173111e-001
1.150141e-002 -1.834639e-002 1.632619e-002 -6.041521e-001 -5.078698e-001 6.140591e-001
1.150141e-002 -1.794572e-002 1.632619e-002 -5.036872e-001 -3.704021e-001 7.804496e-001
1.150141e-002 -1.185073e-003 1.632619e-002 5.948790e-001 -7.747459e-001 2.142141e-001
1.150141e-002 2.745962e-003 1.632619e-002 1.392359e-001 2.868770e-001 9.477948e-001
1.150141e-002 1.674455e-002 1.632619e-002 2.435865e-001 -9.520392e-001 1.851676e-001
1.456664e-002 -2.282783e-002 1.632619e-002 -1.335488e-001 5.883737e-001 -7.974842e-001
1.456664e-002 -1.936293e-002 1.632619e-002 3.275177e-001 -2.667226e-001 9.064167e-001
1.456664e-002 -1.597571e-002 1.632619e-002 -2.486014e-001 3.956881e-001 8.840975e-001
1.456664e-002 1.639872e-002 1.632619e-002 -2.417433e-001 -9.428713e-001 2.292462e-001
1.763188e-002 -3.108188e-002 1.632619e-002 3.499073e-001 9.316413e-001 9.802747e-002
1.763188e-002 -1.611259e-002 1.632619e-002 4.984741e-001 -1.505190e-001 8.537375e-001
1.763188e-002 -1.418814e-002 1.632619e-002 5.002304e-001 8.847517e-002 8.613604e-001
1.763188e-002 1.370069e-002 1.632619e-002 -9.785023e-001 -1.848360e-001 9.148198e-002
2.069712e-002 -2.767624e-002 1.632619e-002 -4.062048e-001 8.779609e-001 2.533424e-001
2.069712e-002 -2.551591e-002 1.632619e-002 -4.618543e-001 8.668900e-001 1.875961e-001
2.069712e-002 -2.407264e-002 1.632619e-002 -4.583095e-001 8.797510e-001 1.264540e-001
2.069712e-002 -5.256208e-003 1.632619e-002 -3.370898e-001 -5.082090e-001 7.925239e-001
2.069712e-002 -1.749062e-003 1.632619e-002 3.589785e-003 7.327445e-001 6.804943e-001
2.069712e-002 6.557650e-003 1.632619e-002 -3.531908e-001 -8.960075e-001 2.691219e-001
2.376236e-002 -3.078265e-002 1.632619e-002 -4.286048e-001 8.874602e-001 1.694466e-001
2.376236e-002 -2.856482e-002 1.632619e-002 -8.515034e-001 5.241826e-001 1.321276e-002
2.376236e-002 -2.201748e-002 1.632619e-002 -6.877567e-001 4.154451e-001 5.953118e-001
2.376236e-002 -6.885775e-003 1.632619e-002 7.048936e-001 -3.719344e-001 6.039782e-001
2.376236e-002 -4.844053e-003 1.632619e-002 7.414020e-001 2.651973e-001 6.164361e-001
2.376236e-002 5.340477e-003 1.632619e-002 -1.706844e-001 -9.586533e-001 2.277076e-001
2.682759e-002 -2.249455e-002 1.632619e-002 -6.779712e-001 6.932387e-001 -2.444898e-001
2.682759e-002 -1.886536e-002 1.632619e-002 -8.849289e-001 -1.482100e-001 4.415141e-001
2.682759e-002 -1.662996e-002 1.632619e-002 -8.659846e-001 1.155097e-001 -4.865473e-001
2.682759e-002 3.281922e-003 1.632619e-002 -7.475002e-001 -6.591771e-001 8.202999e-002
2.989283e-002 -1.140783e-002 1.632619e-002 -8.987489e-001 3.623566e-001 2.468766e-001
2.989283e-002 2.894929e-003 1.632619e-002 -3.284627e-001 -9.389650e-001 1.022596e-001
3.295807e-002 -9.548616e-003 1.632619e-002 -6.027777e-001 5.590048e-001 5.693616e-001
3.295807e-002 -4.043514e-003 1.632619e-002 -6.280167e-001 -6.721004e-001 3.922705e-001
3.602331e-002 -3.959124e-003 1.632619e-002 -5.767239e-001 7.312396e-001 3.642501e-001
3.602331e-002 -6.883927e-004 1.632619e-002 -5.410823e-001 -7.816466e-001 3.102556e-001
-1.662824e-001 -4.018975e-002 1.939143e-002 -1.121071e-003 9.999660e-001 -8.165935e-003
-1.662824e-001 -3.911350e-002 1.939143e-002 7.863843e-004 -9.999722e-001 -7.419679e-003
-1.601519e-001 -3.384735e-002 1.939143e-002 -1.927840e-002 9.996533e-001 -1.793165e-002
-1.601519e-001 -3.319544e-002 1.939143e-002 -1.646229e-002 -9.997415e-001 -1.568327e-002
-5.593383e-002 2.710937e-002 1.939143e-002 9.309978e-001 2.530431e-001 2.630820e-001
-5.593383e-002 2.849759e-002 1.939143e-002 9.773090e-001 -1.955340e-001 8.144576e-002
-5.286859e-002 2.145183e-002 1.939143e-002 6.957975e-001 7.141030e-001 7.695955e-002
-5.286859e-002 3.147938e-002 1.939143e-002 6.090132e-001 -7.896178e-001 7.487676e-002
-4.980335e-002 1.838106e-002 1.939143e-002 7.440438e-001 6.638908e-001 7.515258e-002
-4.980335e-002 3.157970e-002 1.939143e-002 1.450230e-001 -9.837305e-001 1.060314e-001
-4.673811e-002 1.529181e-002 1.939143e-002 7.417821e-001 6.667411e-001 7.221942e-002
-4.673811e-002 2.119074e-002 1.939143e-002 1.961408e-001 -4.961737e-001 -8.457780e-001
-4.673811e-002 2.219492e-002 1.939143e-002 3.984345e-001 1.885344e-001 -8.976105e-001
-4.673811e-002 3.346691e-002 1.939143e-002 8.609220e-001 -4.438362e-001 2.486418e-001
-4.367287e-002 1.241327e-002 1.939143e-002 6.292865e-001 7.136475e-001 -3.077427e-001
-4.367287e-002 3.774455e-002 1.939143e-002 4.070036e-001 -9.079139e-001 1.002021e-001
-4.060763e-002 1.193820e-002 1.939143e-002 -4.803260e-001 6.501355e-001 -5.887367e-001
-4.060763e-002 1.484820e-002 1.939143e-002 -9.797448e-001 4.037766e-002 1.961374e-001
-4.060763e-002 2.351085e-002 1.939143e-002 -9.315150e-001 3.254540e-001 1.623563e-001
-4.060763e-002 3.543162e-002 1.939143e-002 -8.328941e-001 -4.549595e-003 5.534136e-001
-4.060763e-002 3.784315e-002 1.939143e-002 -1.187212e-001 5.190417e-001 8.464639e-001
-4.060763e-002 4.176885e-002 1.939143e-002 7.933298e-001 -5.988685e-001 1.094730e-001
-3.754240e-002 1.736537e-002 1.939143e-002 -9.499426e-001 2.543758e-001 1.813889e-001
-3.754240e-002 1.923335e-002 1.939143e-002 -7.954721e-001 -5.894445e-001 1.406389e-001
-3.754240e-002 2.693461e-002 1.939143e-002 -2.071714e-002 9.868905e-001 1.600559e-001
-3.754240e-002 3.029980e-002 1.939143e-002 7.154298e-001 -3.136580e-001 6.243228e-001
-3.754240e-002 3.294839e-002 1.939143e-002 4.066608e-001 -3.051526e-001 8.611091e-001
-3.754240e-002 3.537649e-002 1.939143e-002 5.037811e-001 -3.012711e-001 8.095927e-001
-3.754240e-002 4.102033e-002 1.939143e-002 -6.260733e-001 -3.487640e-001 6.974209e-001
-3.754240e-002 4.375167e-002 1.939143e-002 1.323123e-001 -9.829167e-001 1.279379e-001
-3.447716e-002 2.679656e-002 1.939143e-002 -2.930164e-002 9.945290e-001 1.002673e-001
-3.447716e-002 4.038462e-002 1.939143e-002 7.048681e-001 -5.443345e-001 4.548196e-001
-3.141192e-002 1.798286e-002 1.939143e-002 -2.408822e-001 9.455365e-001 2.189440e-001
-3.141192e-002 1.940450e-002 1.939143e-002 8.110124e-001 2.702693e-002 5.844042e-001
-3.141192e-002 2.704671e-002 1.939143e-002 1.184680e-001 9.861144e-001 1.163777e-001
-3.141192e-002 4.691540e-002 1.939143e-002 5.888617e-001 -7.986990e-001 1.237815e-001
-2.834669e-002 2.100410e-002 1.939143e-002 2.684369e-001 9.586030e-001 9.498397e-002
-2.834669e-002 4.505947e-002 1.939143e-002 -8.083736e-001 -5.882207e-001 -2.298617e-002
-2.834669e-002 4.764668e-002 1.939143e-002 3.266819e-001 -6.899024e-001 -6.459982e-001
-2.834669e-002 4.991043e-002 1.939143e-002 7.368314e-001 -5.796757e-001 -3.479305e-001
-2.528145e-002 2.146690e-002 1.939143e-002 -2.558122e-001 9.633915e-001 8.023132e-002
-2.528145e-002 4.431338e-002 1.939143e-002 4.408567e-001 -8.765895e-001 1.929671e-001
-2.528145e-002 4.828199e-002 1.939143e-002 1.011307e-001 9.914531e-001 -8.242235e-002
-2.528145e-002 5.288926e-002 1.939143e-002 2.321142e-001 -9.703753e-001 6.704330e-002
-2.221621e-002 2.387509e-002 1.939143e-002 -5.705647e-001 8.029742e-001 1.723029e-001
-2.221621e-002 4.982117e-002 1.939143e-002 -1.706678e-001 -9.841973e-001 -4.720388e-002
-1.915097e-002 2.795876e-002 1.939143e-002 -9.711554e-001 2.245366e-001 8.025243e-002
-1.915097e-002 4.984903e-002 1.939143e-002 -1.762691e-001 -9.829057e-001 5.315588e-002
-1.608573e-002 3.010609e-002 1.939143e-002 -8.271661e-001 5.544482e-001 9.156089e-002
-1.608573e-002 3.230870e-002 1.939143e-002 -9.660493e-001 -1.291830e-001 2.237422e-001
-1.608573e-002 4.540779e-002 1.939143e-002 -4.684055e-001 8.252896e-001 3.154257e-001
-1.608573e-002 4.788566e-002 1.939143e-002 -8.744844e-001 -2.882269e-001 3.901312e-001
-1.302050e-002 3.325231e-002 1.939143e-002 -5.774626e-001 8.116300e-001 8.828272e-002
-1.302050e-002 4.441147e-002 1.939143e-002 -6.781326e-001 -6.499764e-001 3.430260e-001
-9.955259e-003 3.638250e-002 1.939143e-002 -9.403077e-001 3.265588e-001 9.581681e-002
-9.955259e-003 3.772436e-002 1.939143e-002 -9.553507e-001 -2.836506e-002 2.941095e-001
-6.890021e-003 -2.199099e-002 1.939143e-002 6.316835e-001 3.249922e-001 7.038154e-001
-6.890021e-003 -2.038643e-002 1.939143e-002 7.685333e-001 -1.342045e-001 6.255763e-001
-3.824783e-003 -2.179847e-002 1.939143e-002 -1.009669e-001 9.886239e-001 1.114829e-001
-3.824783e-003 -1.373373e-002 1.939143e-002 8.449553e-001 -5.308252e-001 -6.538409e-002
-7.595455e-004 -2.169851e-002 1.939143e-002 2.710533e-001 9.624938e-001 -1.165390e-002
-7.595455e-004 -1.546236e-002 1.939143e-002 -6.463116e-002 -6.393695e-001 7.661784e-001
-7.595455e-004 -1.181262e-002 1.939143e-002 5.644540e-001 7.538542e-001 3.362970e-001
-7.595455e-004 -5.369482e-003 1.939143e-002 6.250603e-001 -7.071041e-001 -3.306108e-001
2.305692e-003 -2.484758e-002 1.939143e-002 5.724956e-001 8.159742e-001 8.021827e-002
2.305692e-003 -4.685861e-003 1.939143e-002 9.219902e-001 -3.753592e-001 9.507611e-002
2.305692e-003 -9.643731e-004 1.939143e-002 9.704842e-001 -2.230852e-001 9.161565e-002
2.305692e-003 6.610573e-004 1.939143e-002 9.099631e-001 -4.139171e-001 -2.529550e-002
5.370930e-003 -2.492581e-002 1.939143e-002 8.852829e-002 9.904662e-001 1.055434e-001
5.370930e-003 9.615186e-003 1.939143e-002 7.754056e-001 -5.420413e-001 -3.239404e-001
8.436168e-003 -2.801384e-002 1.939143e-002 6.416216e-001 7.664418e-001 2.981034e-002
8.436168e-003 -1.614288e-002 1.939143e-002 -3.710554e-001 -2.006011e-001 9.066846e-001
8.436168e-003 -1.366509e-002 1.939143e-002 -1.867646e-002 -1.562652e-001 9.875385e-001
8.436168e-003 -1.104562e-002 1.939143e-002 -2.438928e-001 1.990042e-001 9.491647e-001
8.436168e-003 -8.150368e-003 1.939143e-002 -2.808994e-001 7.829232e-001 5.550917e-001
8.436168e-003 1.473229e-002 1.939143e-002 9.613080e-001 -2.613603e-001 8.705029e-002
1.150141e-002 -2.794154e-002 1.939143e-002 -1.284980e-001 9.871824e-001 -9.465338e-002
1.150141e-002 -2.469092e-002 1.939143e-002 3.257998e-001 -4.346290e-001 8.396143e-001
1.150141e-002 -2.324521e-002 1.939143e-002 2.894605e-001 -7.946667e-001 5.335892e-001
1.150141e-002 -1.929432e-002 1.939143e-002 5.383406e-001 4.187232e-001 7.313414e-001
1.150141e-002 -1.766756e-002 1.939143e-002 6.324437e-001 5.598218e-001 5.353639e-001
1.150141e-002 -3.269377e-003 1.939143e-002 -3.638343e-001 -8.689831e-001 -3.353998e-001
1.150141e-002 -1.969320e-003 1.939143e-002 -5.789784e-001 -8.053438e-001 1.273001e-001
1.150141e-002 1.860553e-002 1.939143e-002 1.616590e-001 -9.845358e-001 6.749615e-002
1.456664e-002 -2.759909e-002 1.939143e-002 1.010590e-001 9.129097e-001 3.954528e-001
1.456664e-002 1.824307e-002 1.939143e-002 -2.097852e-001 -9.757810e-001 6.198046e-002
1.763188e-002 -3.121399e-002 1.939143e-002 5.837783e-001 8.092163e-001 6.612017e-002
1.763188e-002 1.534195e-002 1.939143e-002 -9.631314e-001 -2.624187e-001 5.928208e-002
2.069712e-002 -3.128059e-002 1.939143e-002 -4.729391e-001 8.790641e-001 5.979047e-002
2.069712e-002 -2.433455e-002 1.939143e-002 -5.496362e-001 8.050770e-001 2.230493e-001
2.069712e-002 -2.432265e-002 1.939143e-002 -5.454856e-001 8.080268e-001 2.225719e-001
2.069712e-002 -1.891582e-002 1.939143e-002 -3.195687e-001 -7.418768e-001 5.894868e-001
2.069712e-002 -1.703549e-002 1.939143e-002 -6.888007e-002 -1.917147e-001 9.790307e-001
2.069712e-002 6.897252e-003 1.939143e-002 -3.624001e-001 -9.176371e-001 1.631212e-001
2.376236e-002 -2.601591e-002 1.939143e-002 -4.471734e-001 8.452989e-001 2.924135e-001
2.376236e-002 6.442192e-003 1.939143e-002 -1.790000e-001 -9.757686e-001 1.258354e-001
2.682759e-002 -1.393513e-002 1.939143e-002 -5.959390e-001 7.659992e-001 2.410433e-001
2.682759e-002 3.675175e-003 1.939143e-002 -7.842482e-001 -6.197345e-001 -2.973022e-002
2.989283e-002 -1.309749e-002 1.939143e-002 -2.540267e-001 6.442679e-001 7.213801e-001
2.989283e-002 2.991576e-003 1.939143e-002 -2.753588e-001 -9.609221e-001 -2.839300e-002
3.295807e-002 -1.300970e-002 1.939143e-002 -5.949230e-001 7.060443e-001 3.841459e-001
3.295807e-002 -5.982211e-003 1.939143e-002 -8.134113e-001 -4.759782e-001 -3.343754e-001
3.295807e-002 -5.736568e-003 1.939143e-002 -8.184286e-001 -5.133740e-001 -2.581120e-001
3.295807e-002 -1.703180e-003 1.939143e-002 -1.694824e-001 -3.043036e-001 9.373767e-001
3.602331e-002 -5.180529e-003 1.939143e-002 -7.313953e-001 5.922493e-001 3.380854e-001
3.602331e-002 -5.205497e-004 1.939143e-002 -3.975348e-001 -9.149033e-001 -7.012772e-002
-5.593383e-002 2.432970e-002 2.245666e-002 6.049777e-001 6.492723e-001 4.609202e-001
-5.593383e-002 2.863791e-002 2.245666e-002 7.819165e-001 -6.213877e-001 4.983956e-002
-5.286859e-002 2.130577e-002 2.245666e-002 6.896811e-001 7.206026e-001 7.121709e-002
-5.286859e-002 3.161472e-002 2.245666e-002 5.850130e-001 -8.084646e-001 6.437982e-002
-4.980335e-002 1.821941e-002 2.245666e-002 7.118998e-001 6.982132e-001 7.547899e-002
-4.980335e-002 3.173645e-002 2.245666e-002 2.487146e-001 -9.586040e-001 -1.386336e-001
-4.673811e-002 1.513411e-002 2.245666e-002 7.399073e-001 6.700285e-001 5.999111e-002
-4.673811e-002 2.101071e-002 2.245666e-002 6.844142e-001 1.678593e-001 7.095072e-001
-4.673811e-002 2.206112e-002 2.245666e-002 5.014644e-001 4.515429e-001 7.379989e-001
-4.673811e-002 3.527551e-002 2.245666e-002 8.229483e-001 -5.424985e-001 1.686756e-001
-4.367287e-002 1.431829e-002 2.245666e-002 9.385881e-002 9.838325e-001 -1.525258e-001
-4.367287e-002 3.789311e-002 2.245666e-002 4.076426e-001 -9.095010e-001 8.145875e-002
-4.060763e-002 1.491425e-002 2.245666e-002 -2.649308e-001 9.635544e-001 3.707637e-002
-4.060763e-002 2.002284e-002 2.245666e-002 -8.536762e-001 -3.531558e-001 3.827767e-001
-4.060763e-002 2.314312e-002 2.245666e-002 -9.731497e-001 2.068194e-001 1.010223e-001
-4.060763e-002 3.643034e-002 2.245666e-002 -8.640314e-001 3.200237e-001 3.886315e-001
-4.060763e-002 3.729092e-002 2.245666e-002 -6.969241e-001 4.997658e-001 5.143257e-001
-4.060763e-002 4.223872e-002 2.245666e-002 7.626634e-001 -6.379142e-001 1.068173e-001
-3.754240e-002 1.514643e-002 2.245666e-002 -5.776002e-001 7.649807e-001 2.849252e-001
-3.754240e-002 1.943537e-002 2.245666e-002 -6.114368e-001 -7.836695e-001 1.095776e-001
-3.754240e-002 2.676188e-002 2.245666e-002 -1.902679e-001 9.736642e-001 1.256035e-001
-3.754240e-002 3.871676e-002 2.245666e-002 -4.744459e-002 3.512078e-001 9.350947e-001
-3.754240e-002 4.035076e-002 2.245666e-002 -3.722430e-001 4.049142e-001 8.351524e-001
-3.754240e-002 4.390820e-002 2.245666e-002 1.771875e-001 -9.757845e-001 1.282543e-001
-3.447716e-002 2.665594e-002 2.245666e-002 -3.190785e-002 9.950095e-001 9.454093e-002
-3.447716e-002 4.290272e-002 2.245666e-002 -2.433915e-001 -8.365067e-001 4.909349e-001
-3.141192e-002 1.783520e-002 2.245666e-002 -4.408432e-001 7.927545e-001 4.209484e-001
-3.141192e-002 1.957374e-002 2.245666e-002 4.821260e-001 -6.079357e-001 6.308476e-001
-3.141192e-002 2.688245e-002 2.245666e-002 1.768461e-001 9.812704e-001 7.637982e-002
-3.141192e-002 4.719132e-002 2.245666e-002 3.699576e-001 -8.819404e-001 2.920832e-001
-2.834669e-002 2.085963e-002 2.245666e-002 1.931226e-001 9.770553e-001 8.981443e-002
-2.834669e-002 4.485511e-002 2.245666e-002 -3.791174e-001 -9.041908e-001 -1.967457e-001
-2.528145e-002 2.132920e-002 2.245666e-002 -2.532769e-001 9.649415e-001 6.883800e-002
-2.528145e-002 4.448874e-002 2.245666e-002 2.009165e-001 -9.611399e-001 -1.893215e-001
-2.528145e-002 4.853644e-002 2.245666e-002 7.816474e-001 6.143253e-001 -1.078506e-001
-2.528145e-002 5.300543e-002 2.245666e-002 1.546312e-001 -9.857652e-001 6.600077e-002
-2.221621e-002 2.280617e-002 2.245666e-002 -4.155402e-001 9.004794e-001 1.283089e-001
-2.221621e-002 4.992968e-002 2.245666e-002 -1.333291e-001 -9.183635e-001 -3.726016e-001
-1.915097e-002 2.633189e-002 2.245666e-002 -9.544740e-001 2.588983e-001 1.481590e-001
-1.915097e-002 4.997317e-002 2.245666e-002 -8.975586e-002 -9.920605e-001 8.808979e-002
-1.608573e-002 2.995443e-002 2.245666e-002 -8.223386e-001 5.642316e-001 7.349788e-002
-1.608573e-002 3.252238e-002 2.245666e-002 -8.984344e-001 -4.026966e-001 1.750744e-001
-1.608573e-002 4.519112e-002 2.245666e-002 -3.103164e-001 9.291331e-001 2.010362e-001
-1.608573e-002 4.858243e-002 2.245666e-002 -7.386538e-001 -6.347582e-001 2.268759e-001
-1.302050e-002 3.310899e-002 2.245666e-002 -7.422362e-001 6.630620e-001 9.712908e-002
-1.302050e-002 3.529614e-002 2.245666e-002 -9.087902e-002 -2.553434e-001 9.625698e-001
-1.302050e-002 4.216540e-002 2.245666e-002 4.043398e-001 8.293210e-001 3.856632e-001
-1.302050e-002 4.561378e-002 2.245666e-002 -7.994387e-001 -4.970027e-001 3.374699e-001
-9.955259e-003 3.622238e-002 2.245666e-002 -6.066610e-001 7.905059e-001 8.404057e-002
-9.955259e-003 4.099589e-002 2.245666e-002 -5.732685e-001 -4.728428e-001 6.691658e-001
-6.890021e-003 -2.208838e-002 2.245666e-002 6.628382e-001 3.434258e-001 -6.653602e-001
-6.890021e-003 -2.032627e-002 2.245666e-002 7.816784e-001 -1.865082e-001 -5.951416e-001
-3.824783e-003 -2.192087e-002 2.245666e-002 -1.655431e-001 9.817762e-001 9.333321e-002
-3.824783e-003 -1.365245e-002 2.245666e-002 8.717729e-001 -4.353708e-001 2.246424e-001
-7.595455e-004 -2.147410e-002 2.245666e-002 1.855160e-001 9.453481e-001 2.681431e-001
-7.595455e-004 -7.440410e-003 2.245666e-002 7.482855e-001 -6.530651e-001 -1.165104e-001
2.305692e-003 -2.510482e-002 2.245666e-002 4.449053e-001 8.906029e-001 9.426419e-002
2.305692e-003 7.058943e-004 2.245666e-002 7.975391e-001 -5.991079e-001 -7.071903e-002
5.370930e-003 -2.452156e-002 2.245666e-002 1.459708e-002 9.963368e-001 8.426151e-002
5.370930e-003 7.280275e-003 2.245666e-002 7.315316e-001 -6.813427e-001 2.517014e-002
8.436168e-003 -2.811209e-002 2.245666e-002 5.199856e-001 8.535414e-001 3.289365e-002
8.436168e-003 1.601450e-002 2.245666e-002 9.382576e-001 -3.303989e-001 1.025152e-001
1.150141e-002 -2.764020e-002 2.245666e-002 1.220082e-001 9.760053e-001 1.803541e-001
1.150141e-002 1.873373e-002 2.245666e-002 1.487430e-001 -9.821623e-001 1.150336e-001
1.456664e-002 -3.122988e-002 2.245666e-002 5.183070e-001 7.088190e-001 4.784699e-001
1.456664e-002 1.866983e-002 2.245666e-002 -1.979062e-001 -9.720141e-001 1.265769e-001
1.763188e-002 -3.132140e-002 2.245666e-002 -2.873203e-001 9.559060e-001 6.075206e-002
1.763188e-002 1.597614e-002 2.245666e-002 -9.238188e-001 -3.581844e-001 1.351397e-001
2.069712e-002 -2.783894e-002 2.245666e-002 -7.440400e-001 6.679245e-001 -1.677223e-002
2.069712e-002 7.156655e-003 2.245666e-002 -3.972448e-001 -9.107271e-001 1.130158e-001
2.069712e-002 3.984568e-002 2.245666e-002 1.242377e-002 7.282862e-002 9.972671e-001
2.069712e-002 4.024550e-002 2.245666e-002 1.313932e-002 -5.728197e-002 9.982716e-001
2.376236e-002 -3.438332e-002 2.245666e-002 -2.820757e-002 5.855895e-001 8.101169e-001
2.376236e-002 -3.222708e-002 2.245666e-002 -3.138785e-001 1.289795e-001 9.406618e-001
2.376236e-002 -2.759175e-002 2.245666e-002 -3.748131e-001 7.864500e-001 4.909293e-001
2.376236e-002 5.233712e-005 2.245666e-002 -2.810626e-001 8.109252e-001 -5.132290e-001
2.376236e-002 2.967793e-004 2.245666e-002 -4.412361e-001 8.268034e-001 -3.488650e-001
2.376236e-002 6.551635e-003 2.245666e-002 -3.653580e-001 -9.304225e-001 2.876858e-002
2.682759e-002 -2.024082e-002 2.245666e-002 -8.643441e-001 3.353292e-001 3.747849e-001
2.682759e-002 3.385277e-003 2.245666e-002 -6.190892e-001 -6.134419e-001 -4.903238e-001
2.682759e-002 3.041183e-002 2.245666e-002 -1.421679e-002 1.448928e-001 9.893452e-001
2.682759e-002 3.128151e-002 2.245666e-002 -1.342790e-002 -1.646014e-001 9.862688e-001
2.989283e-002 -1.819984e-002 2.245666e-002 -9.640924e-001 1.009084e-001 2.456487e-001
2.989283e-002 -1.816964e-002 2.245666e-002 -9.637807e-001 1.028702e-001 2.460579e-001
2.989283e-002 -1.492261e-002 2.245666e-002 -8.839459e-001 3.927536e-001 2.537402e-001
2.989283e-002 2.841365e-003 2.245666e-002 -2.263861e-001 -9.263359e-001 -3.010834e-001
2.989283e-002 4.549660e-002 2.245666e-002 -1.523808e-002 3.528097e-001 -9.355710e-001
2.989283e-002 4.684638e-002 2.245666e-002 -1.188271e-002 -3.762955e-001 -9.264235e-001
3.295807e-002 -1.250491e-002 2.245666e-002 -6.793394e-001 5.781528e-001 -4.519261e-001
3.295807e-002 -3.069128e-004 2.245666e-002 -6.691025e-001 -7.430975e-001 -1.039106e-002
3.295807e-002 6.708883e-002 2.245666e-002 -2.597508e-002 9.991264e-001 -3.273589e-002
3.295807e-002 6.817213e-002 2.245666e-002 -2.246434e-002 -9.993125e-001 -2.949533e-002
3.602331e-002 -5.084405e-003 2.245666e-002 -9.343573e-001 2.669300e-001 2.360611e-001
3.602331e-002 -1.130450e-003 2.245666e-002 -8.891165e-001 -4.409913e-001 1.224686e-001
3.602331e-002 7.821759e-003 2.245666e-002 -2.926477e-001 -9.486731e-001 -1.199029e-001
3.602331e-002 9.705604e-003 2.245666e-002 -1.493012e-001 -9.854412e-001 -8.133195e-002
-1.662824e-001 -3.965144e-002 1.885304e-002 -7.921085e-004 -3.350612e-003 9.999940e-001
-1.662824e-001 -3.965144e-002 1.992898e-002 -3.509468e-004 -2.602479e-003 -9.999965e-001
-1.601519e-001 -3.352097e-002 1.906516e-002 -1.857845e-002 -2.384559e-002 9.995430e-001
-1.601519e-001 -3.352097e-002 1.971705e-002 -1.680014e-002 -2.160776e-002 -9.996254e-001
-1.540214e-001 -2.739049e-002 2.478595e-002 -1.331034e-003 -1.460469e-003 9.999980e-001
-1.509562e-001 -2.432525e-002 1.294244e-002 -3.129445e-002 -3.568326e-002 9.988731e-001
-1.509562e-001 -2.432525e-002 1.357837e-002 -2.852427e-002 -3.225813e-002 -9.990725e-001
-5.593383e-002 2.471855e-002 2.200478e-002 5.818227e-001 6.328385e-001 5.108793e-001
-5.593383e-002 2.778379e-002 1.294997e-002 6.811669e-001 6.445372e-002 7.292855e-001
-5.286859e-002 2.165332e-002 1.625228e-002 7.479876e-001 6.532396e-001 1.174418e-001
-5.286859e-002 2.471855e-002 1.784721e-002 9.650177e-001 1.227356e-001 2.316827e-001
-5.286859e-002 2.778379e-002 1.267014e-002 2.852701e-001 -4.193200e-001 8.618537e-001
-5.286859e-002 3.084903e-002 1.491450e-002 6.692061e-001 -6.673794e-001 3.267536e-001
-4.980335e-002 1.858808e-002 1.586082e-002 7.397953e-001 6.681992e-001 7.882034e-002
-4.980335e-002 2.165332e-002 1.463889e-002 3.459160e-001 1.523957e-001 9.258065e-001
-4.980335e-002 2.471855e-002 1.324843e-002 4.134898e-001 1.278465e-001 9.014885e-001
-4.980335e-002 2.778379e-002 1.299027e-002 2.258173e-001 7.813438e-001 5.818148e-001
-4.980335e-002 3.084903e-002 1.111918e-002 4.713440e-001 -8.301129e-001 2.979049e-001
-4.673811e-002 1.552284e-002 1.599863e-002 6.403919e-001 7.623381e-001 9.348190e-002
-4.673811e-002 1.858808e-002 9.333919e-003 -7.660177e-003 -6.643375e-001 7.473935e-001
-4.673811e-002 2.165332e-002 1.291015e-002 5.789155e-001 -1.246041e-001 8.058106e-001
-4.673811e-002 2.165332e-002 1.818817e-002 5.736661e-001 -5.682881e-001 -5.898778e-001
-4.673811e-002 2.165332e-002 2.293790e-002 5.349125e-001 3.130521e-001 7.847719e-001
-4.673811e-002 2.471855e-002 9.594995e-003 5.904242e-001 7.828553e-001 1.963080e-001
-4.673811e-002 2.471855e-002 1.571576e-002 7.320735e-001 2.391306e-001 6.378752e-001
-4.673811e-002 2.471855e-002 1.647839e-002 5.510929e-001 2.486291e-001 7.965426e-001
-4.673811e-002 2.778379e-002 5.632702e-003 -3.367323e-002 -7.420725e-001 6.694734e-001
-4.673811e-002 3.084903e-002 8.547284e-003 4.205925e-002 -1.819925e-001 9.824000e-001
-4.673811e-002 3.391426e-002 8.137799e-003 7.428415e-001 -6.280969e-001 2.316912e-001
-4.673811e-002 3.391426e-002 1.496581e-002 8.950208e-001 -4.227749e-001 -1.421237e-001
-4.673811e-002 3.391426e-002 1.982868e-002 8.780581e-001 -4.220347e-001 2.256118e-001
-4.367287e-002 1.245760e-002 1.851273e-002 6.827201e-001 6.969835e-001 -2.193337e-001
-4.367287e-002 1.245760e-002 1.946238e-002 6.247420e-001 7.156370e-001 -3.123478e-001
-4.367287e-002 1.552284e-002 3.596602e-003 -6.800761e-001 2.333919e-001 -6.949998e-001
-4.367287e-002 1.552284e-002 4.255113e-003 -4.794575e-001 1.870222e-001 -8.574049e-001
-4.367287e-002 1.552284e-002 1.659504e-002 -4.735753e-001 1.455034e-001 8.686514e-001
-4.367287e-002 1.858808e-002 1.512488e-002 -7.529314e-001 5.259292e-001 3.955919e-001
-4.367287e-002 2.165332e-002 1.203218e-002 -4.813095e-001 3.668961e-001 7.960706e-001
-4.367287e-002 2.471855e-002 9.375400e-003 -3.502055e-001 5.030966e-001 7.900949e-001
-4.367287e-002 2.778379e-002 1.096513e-002 -8.503528e-001 -1.882511e-001 4.913875e-001
-4.367287e-002 3.084903e-002 9.514124e-003 -6.500035e-001 -5.728310e-001 4.993596e-001
-4.367287e-002 3.391426e-002 1.290803e-002 -4.155483e-001 -2.234427e-002 9.092966e-001
-4.367287e-002 3.697950e-002 8.562293e-003 2.858572e-001 -9.180611e-001 2.746807e-001
-4.060763e-002 1.245760e-002 1.020402e-002 -6.696039e-001 7.036312e-001 2.377682e-001
-4.060763e-002 1.245760e-002 1.999806e-002 -4.648913e-001 5.962498e-001 -6.544939e-001
-4.060763e-002 1.552284e-002 2.006395e-002 -7.599358e-001 5.480340e-002 6.476837e-001
-4.060763e-002 1.858808e-002 1.982517e-002 -2.420494e-002 -4.857380e-001 8.737693e-001
-4.060763e-002 2.471855e-002 7.070903e-003 8.521861e-001 5.052553e-001 1.359997e-001
-4.060763e-002 2.471855e-002 7.200887e-003 8.439867e-001 5.178419e-001 1.397362e-001
-4.060763e-002 2.471855e-002 1.253983e-002 -8.004893e-001 3.363783e-001 4.960509e-001
-4.060763e-002 2.778379e-002 1.920495e-002 2.302476e-001 -4.228076e-001 8.764815e-001
-4.060763e-002 3.084903e-002 1.864335e-002 -7.435591e-001 2.333995e-001 6.266135e-001
-4.060763e-002 3.391426e-002 1.574956e-002 -6.651001e-001 -8.449620e-002 7.419584e-001
-4.060763e-002 3.697950e-002 2.402754e-002 -7.567264e-001 5.415722e-001 3.661486e-001
-4.060763e-002 4.004474e-002 8.657688e-003 8.156739e-001 -5.127351e-001 2.679156e-001
-3.754240e-002 1.552284e-002 6.690128e-003 -7.626557e-001 4.544430e-001 -4.602585e-001
-3.754240e-002 1.552284e-002 7.182345e-003 -7.235499e-001 4.334746e-001 -5.371920e-001
-3.754240e-002 1.552284e-002 2.136839e-002 -6.119770e-001 7.488030e-001 2.545156e-001
-3.754240e-002 1.858808e-002 1.297658e-002 -3.674009e-001 -7.862549e-002 9.267333e-001
-3.754240e-002 2.471855e-002 5.219571e-003 -6.028510e-001 7.589483e-001 2.461060e-001
-3.754240e-002 2.471855e-002 1.093208e-002 -4.421920e-001 6.087637e-001 -6.586903e-001
-3.754240e-002 2.778379e-002 8.873806e-003 5.876221e-001 -7.809784e-001 2.115962e-001
-3.754240e-002 3.084903e-002 2.148732e-002 4.571173e-001 -7.360858e-001 4.992208e-001
-3.754240e-002 3.391426e-002 1.832592e-002 2.388027e-001 1.832426e-001 9.536223e-001
-3.754240e-002 3.697950e-002 2.051752e-002 6.402813e-001 -5.248559e-001 5.608619e-001
-3.754240e-002 4.004474e-002 2.286262e-002 -2.825568e-001 5.662814e-001 7.742655e-001
-3.754240e-002 4.310998e-002 1.257007e-002 1.747004e-001 -7.679030e-001 6.162831e-001
-3.447716e-002 1.552284e-002 2.458926e-002 -2.777804e-001 3.955099e-001 8.754484e-001
-3.447716e-002 1.858808e-002 8.893138e-003 8.630995e-001 4.949503e-001 -1.004160e-001
-3.447716e-002 1.858808e-002 1.081858e-002 5.240929e-001 3.600799e-001 -7.717960e-001
-3.447716e-002 2.778379e-002 4.659526e-003 -9.403029e-002 9.561418e-001 2.774009e-001
-3.447716e-002 3.084903e-002 1.108270e-002 7.195365e-001 -5.798253e-001 3.821909e-001
-3.447716e-002 3.391426e-002 1.415798e-002 5.133771e-001 -6.190650e-001 5.943084e-001
-3.447716e-002 3.697950e-002 1.765172e-002 5.016504e-001 -4.629962e-001 7.307404e-001
-3.447716e-002 4.004474e-002 1.881269e-002 8.092384e-001 -3.629164e-001 4.619794e-001
-3.447716e-002 4.310998e-002 2.255092e-002 -2.724775e-001 -8.340703e-001 4.796694e-001
-3.447716e-002 4.617522e-002 2.437329e-002 5.501755e-001 -3.432673e-001 7.612322e-001
-3.141192e-002 1.858808e-002 8.184300e-003 -8.747924e-001 4.589684e-001 1.551976e-001
-3.141192e-002 2.778379e-002 1.049120e-002 -1.994537e-001 9.589342e-001 2.016518e-001
-3.141192e-002 3.084903e-002 1.004909e-002 1.264945e-001 -3.800072e-001 9.162934e-001
-3.141192e-002 3.391426e-002 1.272289e-002 4.049438e-001 -7.095650e-001 5.766611e-001
-3.141192e-002 3.697950e-002 1.691023e-002 7.353579e-002 -2.766925e-001 9.581408e-001
-3.141192e-002 4.004474e-002 1.638103e-002 1.136590e-001 3.197350e-001 9.406653e-001
-3.141192e-002 4.310998e-002 1.356299e-002 7.043992e-001 5.905565e-001 3.937828e-001
-3.141192e-002 4.617522e-002 8.860027e-003 6.266469e-001 -7.628799e-001 1.591474e-001
-2.834669e-002 2.165332e-002 9.059999e-003 4.950307e-001 8.570728e-001 1.427265e-001
-2.834669e-002 2.471855e-002 1.066539e-002 9.779347e-001 -5.444216e-002 2.016923e-001
-2.834669e-002 2.778379e-002 1.064727e-002 -9.687914e-002 5.508119e-002 9.937708e-001
-2.834669e-002 3.084903e-002 1.035642e-002 -1.670656e-001 1.835396e-001 9.687117e-001
-2.834669e-002 3.391426e-002 9.508038e-003 3.765708e-001 -7.647178e-002 9.232262e-001
-2.834669e-002 3.697950e-002 1.151475e-002 9.461278e-001 -2.421421e-001 2.149637e-001
-2.834669e-002 3.697950e-002 1.535598e-002 8.707868e-001 -4.858437e-001 7.540739e-002
-2.834669e-002 3.697950e-002 1.688232e-002 7.701268e-001 -6.156159e-001 1.670981e-001
-2.834669e-002 4.004474e-002 1.229453e-002 7.712604e-001 -4.243736e-001 4.744094e-001
-2.834669e-002 4.004474e-002 1.464168e-002 8.213136e-001 5.428706e-001 1.753151e-001
-2.834669e-002 4.004474e-002 1.746853e-002 1.658332e-001 9.510609e-001 2.607347e-001
-2.834669e-002 4.310998e-002 1.348837e-002 4.895192e-002 -4.844518e-001 8.734473e-001
-2.834669e-002 4.924046e-002 8.657491e-003 9.073516e-001 -3.804228e-001 1.788619e-001
-2.834669e-002 4.924046e-002 2.055511e-002 7.806627e-001 -5.640152e-001 -2.691701e-001
-2.834669e-002 4.924046e-002 2.400037e-002 4.169022e-001 -4.911922e-001 7.648024e-001
-2.528145e-002 2.165332e-002 1.572634e-002 -2.541358e-001 9.623132e-001 9.678981e-002
-2.528145e-002 2.471855e-002 8.950206e-003 -5.259437e-001 5.206266e-001 6.725557e-001
-2.528145e-002 2.778379e-002 1.110480e-002 -2.949823e-001 -3.344322e-001 8.950645e-001
-2.528145e-002 3.084903e-002 1.101596e-002 -3.556932e-001 1.330384e-001 9.250855e-001
-2.528145e-002 3.391426e-002 1.027214e-002 -4.376940e-001 4.440962e-001 7.817944e-001
-2.528145e-002 3.697950e-002 7.548941e-003 -2.326117e-001 -1.673545e-002 9.724257e-001
-2.528145e-002 4.004474e-002 1.086691e-002 4.344540e-001 -6.029976e-001 6.690618e-001
-2.528145e-002 4.310998e-002 1.281902e-002 6.366891e-001 -6.384127e-001 4.324999e-001
-2.528145e-002 4.924046e-002 1.354539e-002 -4.857897e-001 7.580465e-001 4.351710e-001
-2.528145e-002 5.230569e-002 8.607346e-003 5.689286e-001 -7.903628e-001 2.272594e-001
-2.221621e-002 2.471855e-002 1.644273e-002 -7.711034e-001 5.777552e-001 2.675789e-001
-2.221621e-002 2.778379e-002 1.323187e-002 -7.049416e-001 5.078393e-001 4.951330e-001
-2.221621e-002 3.084903e-002 1.213369e-002 -4.169856e-001 6.340427e-002 9.066989e-001
-2.221621e-002 3.391426e-002 1.227379e-002 -6.430638e-001 8.616761e-002 7.609495e-001
-2.221621e-002 3.697950e-002 1.143076e-002 -7.371562e-001 3.414735e-001 5.830922e-001
-2.221621e-002 4.004474e-002 9.083478e-003 6.242017e-001 3.240194e-001 7.109035e-001
-2.221621e-002 4.310998e-002 8.780247e-003 -1.694010e-001 -2.580918e-001 9.511529e-001
-2.221621e-002 4.617522e-002 1.426021e-002 2.762200e-001 -5.808420e-001 7.657187e-001
-2.221621e-002 4.617522e-002 2.335967e-002 5.375739e-001 -2.325303e-001 -8.105208e-001
-2.221621e-002 4.924046e-002 1.471235e-002 -9.977420e-002 -1.064890e-001 9.892953e-001
-2.221621e-002 4.924046e-002 2.375604e-002 1.634660e-001 -7.200642e-001 -6.743785e-001
-2.221621e-002 5.230569e-002 1.385737e-002 -6.045193e-001 -7.948340e-001 5.287052e-002
-2.221621e-002 5.230569e-002 1.670395e-002 -4.211790e-001 -7.158812e-001 -5.568864e-001
-1.915097e-002 2.471855e-002 2.349086e-002 -9.499154e-001 2.774729e-001 1.437691e-001
-1.915097e-002 2.778379e-002 1.998953e-002 -9.700500e-001 2.245624e-001 9.260018e-002
-1.915097e-002 3.084903e-002 1.273964e-002 -1.926123e-001 1.344645e-001 9.720184e-001
-1.915097e-002 3.391426e-002 1.614112e-002 -9.318334e-001 -3.300414e-001 1.508612e-001
-1.915097e-002 3.697950e-002 1.867454e-002 -9.789423e-001 3.784326e-002 2.005989e-001
-1.915097e-002 4.004474e-002 3.969270e-003 -8.984897e-001 -2.189926e-001 3.804714e-001
-1.915097e-002 4.310998e-002 1.137651e-002 -9.328471e-001 -1.045374e-001 3.447728e-001
-1.915097e-002 4.617522e-002 6.608195e-003 -8.690643e-001 6.184020e-002 4.908187e-001
-1.915097e-002 4.617522e-002 1.216784e-002 1.430729e-001 -5.585150e-001 -8.170625e-001
-1.915097e-002 4.617522e-002 1.668801e-002 -5.622983e-001 -4.470150e-001 6.956998e-001
-1.915097e-002 4.617522e-002 2.344731e-002 4.251322e-001 -2.093419e-001 -8.805899e-001
-1.915097e-002 4.924046e-002 1.416528e-002 -6.177869e-001 -6.065004e-001 5.004963e-001
-1.608573e-002 3.084903e-002 1.284696e-002 -6.473569e-001 3.435297e-001 6.803796e-001
-1.608573e-002 4.617522e-002 1.468396e-002 -4.656568e-001 8.127195e-001 3.502152e-001
-1.302050e-002 3.391426e-002 9.119784e-003 -8.165168e-001 5.319291e-001 2.243921e-001
-1.302050e-002 3.697950e-002 1.626943e-002 5.655128e-001 -6.043385e-001 5.612221e-001
-1.302050e-002 3.697950e-002 1.995442e-002 8.997582e-001 -2.190069e-001 -3.774536e-001
-1.302050e-002 3.697950e-002 2.404061e-002 6.096326e-001 -2.729400e-001 7.442122e-001
-1.302050e-002 4.004474e-002 1.855014e-002 -4.115939e-001 -8.361013e-003 9.113290e-001
-1.302050e-002 4.004474e-002 2.043599e-002 4.373225e-001 6.573268e-001 6.137348e-001
-1.302050e-002 4.004474e-002 2.395658e-002 5.386216e-001 2.138796e-001 8.149493e-001
-1.302050e-002 4.310998e-002 1.622822e-002 -2.276116e-001 3.868392e-001 8.936154e-001
-9.955259e-003 3.697950e-002 1.310413e-002 -3.946696e-001 4.817395e-002 9.175594e-001
-9.955259e-003 4.004474e-002 2.183442e-002 -5.177906e-001 -5.104775e-001 6.865171e-001
-6.890021e-003 -2.126001e-002 1.865382e-002 6.568928e-001 1.128850e-001 7.454857e-001
-6.890021e-003 -2.126001e-002 2.330056e-002 6.094602e-001 5.728322e-002 -7.907445e-001
-6.890021e-003 -1.819478e-002 1.324629e-002 8.102038e-001 1.046057e-001 -5.767387e-001
-6.890021e-003 -1.819478e-002 1.326163e-002 8.087100e-001 1.039672e-001 -5.789464e-001
-3.824783e-003 -2.126001e-002 7.101737e-003 5.884619e-001 6.161931e-001 5.234680e-001
-3.824783e-003 -1.819478e-002 6.097959e-003 6.384981e-002 3.448312e-001 9.364907e-001
