ply
format ascii 1.0
comment Written by HALCON (export v1.0)
element vertex 476
property float x
property float y
property float z
property float nx
property float ny
property float nz
property float score
end_header
7.576653e-003 6.170918e-002 -1.375255e-002 -9.858398e-002 6.116258e-002 9.932474e-001 9.457572e-001
5.231646e-002 1.780230e-002 -8.513968e-003 -2.313092e-001 1.361196e-001 9.633107e-001 9.258830e-001
5.201469e-002 1.809950e-002 -8.506629e-003 -1.643060e-001 1.819601e-001 9.694813e-001 9.573866e-001
5.174326e-002 1.834401e-002 -8.695089e-003 -1.708158e-001 1.834740e-001 9.680699e-001 9.749085e-001
5.144164e-002 1.864107e-002 -8.687752e-003 -1.899769e-001 2.571741e-001 9.475074e-001 9.774715e-001
5.117064e-002 1.888519e-002 -8.875987e-003 -2.426520e-001 2.823469e-001 9.281165e-001 9.799901e-001
4.775703e-002 2.296414e-002 -2.659352e-003 -6.866046e-001 -7.018465e-001 1.896990e-001 9.226053e-001
4.237838e-002 2.680533e-002 -1.498415e-002 5.374990e-001 -7.124931e-001 4.510525e-001 9.502088e-001
4.083426e-002 2.892892e-002 -9.789623e-003 8.750244e-001 -2.664402e-001 4.041557e-001 9.679879e-001
4.026914e-002 2.946286e-002 -9.969388e-003 9.907380e-001 1.299544e-001 3.937217e-002 9.618507e-001
4.107127e-002 2.798278e-002 -1.589221e-002 9.852048e-001 1.653870e-001 4.492838e-002 9.476914e-001
3.479255e-002 3.403534e-002 -1.686123e-002 1.113044e-002 -1.339339e-002 9.998484e-001 9.748083e-001
3.449763e-002 3.432579e-002 -1.685406e-002 1.113018e-002 -1.339312e-002 9.998484e-001 9.884132e-001
3.420272e-002 3.461624e-002 -1.684688e-002 1.113035e-002 -1.339369e-002 9.998484e-001 9.863031e-001
3.390780e-002 3.490670e-002 -1.683971e-002 1.112998e-002 -1.339248e-002 9.998484e-001 9.449624e-001
2.362464e-002 4.443239e-002 -2.173768e-002 8.188159e-002 -1.037757e-001 9.912245e-001 9.762983e-001
2.329065e-002 4.478255e-002 -2.154807e-002 2.461828e-001 -3.510555e-001 9.034125e-001 9.766843e-001
2.299961e-002 4.506918e-002 -2.154099e-002 2.781635e-001 -3.755578e-001 8.840709e-001 9.747583e-001
2.253463e-002 4.561217e-002 -2.080215e-002 3.690091e-001 -3.214732e-001 8.720592e-001 9.706907e-001
2.228671e-002 4.583503e-002 -2.097829e-002 1.203944e-001 -1.716638e-001 9.777713e-001 9.693529e-001
2.199524e-002 4.612209e-002 -2.097120e-002 -2.782891e-001 1.546981e-002 9.603728e-001 9.696037e-001
2.174771e-002 4.634461e-002 -2.114713e-002 -3.282423e-001 -6.297354e-003 9.445726e-001 9.708356e-001
7.581091e-003 6.112000e-002 -1.376049e-002 -7.151627e-002 6.424954e-002 9.953680e-001 9.399197e-001
7.284270e-003 6.141233e-002 -1.375327e-002 -1.053495e-001 7.973891e-002 9.912332e-001 9.573426e-001
7.039490e-003 6.163133e-002 -1.393605e-002 -1.160858e-001 1.038664e-001 9.877934e-001 9.503128e-001
6.742817e-003 6.192352e-002 -1.392884e-002 -1.222242e-001 9.169842e-002 9.882574e-001 9.252596e-001
5.114454e-002 1.833942e-002 -8.688486e-003 -1.797086e-001 2.853543e-001 9.414232e-001 9.687604e-001
5.087368e-002 1.858369e-002 -8.876718e-003 -2.734983e-001 2.763234e-001 9.213274e-001 9.774153e-001
5.060311e-002 1.882772e-002 -9.064808e-003 -3.280917e-001 3.209552e-001 8.884501e-001 9.777075e-001
5.033280e-002 1.907150e-002 -9.252724e-003 -2.747448e-001 1.861974e-001 9.433164e-001 9.750451e-001
4.976176e-002 1.961149e-002 -9.433088e-003 -2.197629e-001 2.460879e-001 9.440048e-001 9.649871e-001
4.952351e-002 1.980138e-002 -9.815232e-003 -2.046390e-001 4.570487e-001 8.655804e-001 9.625285e-001
4.060984e-002 2.851316e-002 -1.017893e-002 9.412952e-001 1.207527e-002 3.373685e-001 9.464940e-001
4.000934e-002 2.910456e-002 -1.016432e-002 9.697903e-001 2.342053e-001 6.822544e-002 9.255404e-001
3.450204e-002 3.374038e-002 -1.686195e-002 1.112993e-002 -1.339252e-002 9.998484e-001 9.694681e-001
3.420712e-002 3.403084e-002 -1.685477e-002 1.113063e-002 -1.339314e-002 9.998484e-001 9.882408e-001
3.391222e-002 3.432129e-002 -1.684760e-002 1.113054e-002 -1.339292e-002 9.998484e-001 9.899791e-001
3.361729e-002 3.461174e-002 -1.684043e-002 1.113023e-002 -1.339254e-002 9.998484e-001 9.735755e-001
7.288708e-003 6.082314e-002 -1.376122e-002 -1.221706e-001 9.166313e-002 9.882673e-001 9.098696e-001
6.991887e-003 6.111547e-002 -1.375400e-002 -1.160594e-001 1.038799e-001 9.877951e-001 9.516966e-001
6.747256e-003 6.133462e-002 -1.393678e-002 -1.053742e-001 7.975732e-002 9.912291e-001 9.478009e-001
6.450583e-003 6.162681e-002 -1.392956e-002 -7.155571e-002 6.427513e-002 9.953635e-001 9.502997e-001
5.003614e-002 1.877031e-002 -9.253456e-003 -2.803243e-001 1.615852e-001 9.462074e-001 9.789672e-001
4.976625e-002 1.901399e-002 -9.441141e-003 -2.088186e-001 2.683037e-001 9.404296e-001 9.773623e-001
4.946525e-002 1.931044e-002 -9.433819e-003 -1.744274e-001 2.814825e-001 9.435797e-001 9.805102e-001
4.919579e-002 1.955373e-002 -9.621335e-003 -1.854434e-001 3.631209e-001 9.131013e-001 9.777049e-001
4.812065e-002 2.052446e-002 -1.036955e-002 -3.751163e-001 -8.805641e-001 2.896457e-001 9.219130e-001
4.782039e-002 2.082017e-002 -1.036225e-002 -5.473783e-001 -8.015910e-001 2.404763e-001 9.105889e-001
4.729318e-002 2.149388e-002 -8.992247e-003 4.412838e-001 -6.503316e-001 6.183344e-001 9.323779e-001
3.391661e-002 3.373588e-002 -1.685549e-002 4.943214e-002 -7.043283e-003 9.987527e-001 9.826017e-001
3.362171e-002 3.402633e-002 -1.684832e-002 5.833005e-002 7.090771e-003 9.982722e-001 9.898524e-001
3.332678e-002 3.431679e-002 -1.684114e-002 6.640506e-002 1.389595e-002 9.976960e-001 9.860894e-001
3.303186e-002 3.460724e-002 -1.683397e-002 6.741492e-002 4.567466e-002 9.966790e-001 9.199398e-001
1.291818e-002 5.380987e-002 -2.167387e-002 1.116411e-002 -1.339149e-002 9.998480e-001 9.135979e-001
1.262742e-002 5.409623e-002 -2.166679e-002 1.244757e-001 -3.664669e-002 9.915457e-001 9.254504e-001
6.455016e-003 6.103791e-002 -1.393750e-002 -9.860685e-002 6.122038e-002 9.932415e-001 9.276529e-001
6.158344e-003 6.133009e-002 -1.393028e-002 -4.111383e-002 6.106105e-002 9.972869e-001 9.480018e-001
5.861671e-003 6.162228e-002 -1.392306e-002 1.113064e-002 -1.339282e-002 9.998484e-001 9.415971e-001
4.973948e-002 1.846911e-002 -9.254188e-003 -2.622780e-001 1.707153e-001 9.497718e-001 9.485115e-001
4.916875e-002 1.900940e-002 -9.434551e-003 -1.587937e-001 3.008814e-001 9.403483e-001 9.624083e-001
4.889943e-002 1.925284e-002 -9.622066e-003 -2.058276e-001 3.645123e-001 9.081662e-001 9.639960e-001
4.809311e-002 1.998172e-002 -1.018349e-002 -1.154708e-001 2.065679e-001 9.715947e-001 9.343710e-001
4.782489e-002 2.022417e-002 -1.037028e-002 1.622451e-001 -6.971956e-001 6.982799e-001 9.563225e-001
4.752463e-002 2.051989e-002 -1.036298e-002 1.028325e-001 -7.687592e-001 6.312169e-001 9.560853e-001
4.699638e-002 2.119253e-002 -8.992979e-003 1.871528e-001 -7.910765e-001 5.823846e-001 9.527746e-001
4.535607e-002 2.269906e-002 -9.923411e-003 -8.046987e-002 4.120763e-001 9.075890e-001 9.925376e-001
4.428972e-002 2.366249e-002 -1.067024e-002 -3.834670e-001 5.876710e-001 7.124576e-001 9.917583e-001
3.362611e-002 3.344093e-002 -1.685621e-002 1.071490e-001 2.363486e-002 9.939620e-001 9.708189e-001
3.333120e-002 3.373137e-002 -1.684903e-002 1.059079e-001 5.527375e-002 9.928385e-001 9.852685e-001
3.303628e-002 3.402183e-002 -1.684186e-002 1.127843e-001 6.952743e-002 9.911839e-001 9.858975e-001
3.274136e-002 3.431229e-002 -1.683469e-002 1.073101e-001 1.010839e-001 9.890736e-001 9.632561e-001
1.234101e-002 5.380543e-002 -2.166747e-002 2.265597e-001 -2.864545e-002 9.735759e-001 9.818010e-001
1.205025e-002 5.409179e-002 -2.166040e-002 2.584802e-001 -2.011106e-002 9.658072e-001 9.793067e-001
1.175950e-002 5.437814e-002 -2.165335e-002 3.613596e-001 6.094912e-002 9.304324e-001 9.566863e-001
5.569434e-003 6.132556e-002 -1.392378e-002 4.958876e-002 4.411107e-002 9.977952e-001 9.452016e-001
5.272751e-003 6.161776e-002 -1.391657e-002 4.514614e-002 7.325643e-002 9.962908e-001 9.366832e-001
4.976078e-003 6.190994e-002 -1.390935e-002 6.012543e-002 7.723537e-002 9.951983e-001 9.008753e-001
4.722887e-002 2.021960e-002 -1.036371e-002 1.534255e-001 -7.324830e-001 6.632717e-001 9.465062e-001
4.506001e-002 2.239847e-002 -9.924141e-003 -4.109953e-002 4.472610e-001 8.934587e-001 9.938527e-001
4.399425e-002 2.336250e-002 -1.067097e-002 -3.694506e-001 5.990542e-001 7.103804e-001 9.914370e-001
4.372848e-002 2.360291e-002 -1.085723e-002 -3.298321e-001 3.227011e-001 8.871723e-001 9.895554e-001
3.270673e-002 3.378598e-002 -1.665518e-002 1.195213e-001 7.445758e-002 9.900357e-001 9.806794e-001
3.241166e-002 3.407658e-002 -1.664800e-002 1.218722e-001 6.295872e-002 9.905470e-001 9.733030e-001
1.263612e-002 5.294192e-002 -2.168235e-002 1.114771e-002 -1.338421e-002 9.998483e-001 9.398930e-001
1.234536e-002 5.322828e-002 -2.167525e-002 1.716521e-001 -4.285723e-002 9.842250e-001 9.780504e-001
1.205460e-002 5.351464e-002 -2.166818e-002 2.189499e-001 -5.533042e-002 9.741660e-001 9.828618e-001
1.176384e-002 5.380100e-002 -2.166110e-002 2.494012e-001 -6.927788e-002 9.659190e-001 9.709207e-001
1.137535e-002 5.422378e-002 -2.128896e-002 4.161794e-001 -4.179562e-002 9.083214e-001 9.191769e-001
4.980513e-003 6.132105e-002 -1.391729e-002 8.444518e-002 1.215777e-001 9.889833e-001 9.434738e-001
4.683840e-003 6.161323e-002 -1.391007e-002 8.218754e-002 1.712320e-001 9.817967e-001 9.440772e-001
4.580015e-002 2.118334e-002 -8.979786e-003 3.967165e-003 6.151482e-001 7.884015e-001 9.780210e-001
4.526463e-002 2.166829e-002 -9.355473e-003 -3.467710e-001 4.643934e-001 8.149163e-001 9.866605e-001
4.476395e-002 2.209788e-002 -9.924872e-003 -1.447714e-001 3.528700e-001 9.244047e-001 9.847752e-001
4.416284e-002 2.268988e-002 -9.910250e-003 8.186889e-002 5.842032e-001 8.074678e-001 9.785606e-001
4.343316e-002 2.330307e-002 -1.085796e-002 -3.298317e-001 3.227021e-001 8.871722e-001 9.701522e-001
3.271115e-002 3.320028e-002 -1.666307e-002 1.009131e-001 5.696270e-002 9.932632e-001 9.603969e-001
3.241608e-002 3.349088e-002 -1.665589e-002 9.271578e-002 3.917548e-002 9.949216e-001 9.774621e-001
3.212101e-002 3.378148e-002 -1.664872e-002 8.670577e-002 2.986506e-002 9.957862e-001 9.744862e-001
3.182595e-002 3.407208e-002 -1.664154e-002 8.292475e-002 1.603547e-002 9.964268e-001 9.454016e-001
1.264047e-002 5.236478e-002 -2.169010e-002 1.113632e-002 -1.338554e-002 9.998484e-001 9.227294e-001
1.234970e-002 5.265114e-002 -2.168303e-002 1.854633e-001 -3.622681e-002 9.819832e-001 9.778320e-001
1.205896e-002 5.293749e-002 -2.167596e-002 2.670723e-001 -4.184949e-002 9.627674e-001 9.814011e-001
1.176819e-002 5.322384e-002 -2.166891e-002 3.363832e-001 -4.989948e-002 9.404022e-001 9.778001e-001
1.133076e-002 5.371410e-002 -2.111398e-002 5.237620e-001 -8.492775e-002 8.476205e-001 9.452858e-001
4.338239e-003 6.138969e-002 -1.372078e-002 9.505987e-002 1.718384e-001 9.805280e-001 9.463593e-001
4.094931e-003 6.160870e-002 -1.390358e-002 5.402990e-002 2.431683e-001 9.684781e-001 9.393353e-001
3.212543e-002 3.319578e-002 -1.665661e-002 1.113159e-002 -1.339361e-002 9.998484e-001 9.708378e-001
3.183036e-002 3.348638e-002 -1.664943e-002 4.973180e-002 -3.362558e-002 9.981964e-001 9.766693e-001
3.153530e-002 3.377698e-002 -1.664226e-002 5.724299e-002 -3.432592e-002 9.977700e-001 9.688649e-001
1.235406e-002 5.207399e-002 -2.169081e-002 1.837661e-001 -6.501798e-002 9.808174e-001 9.699224e-001
1.206330e-002 5.236035e-002 -2.168374e-002 2.613950e-001 -6.874131e-002 9.627810e-001 9.822973e-001
1.177255e-002 5.264670e-002 -2.167666e-002 3.035510e-001 -7.389619e-002 9.499453e-001 9.750220e-001
4.045858e-003 6.109283e-002 -1.372150e-002 6.754965e-002 1.663672e-001 9.837474e-001 9.477490e-001
3.749036e-003 6.138515e-002 -1.371428e-002 1.043337e-001 8.310302e-002 9.910643e-001 9.477564e-001
3.183478e-002 3.290068e-002 -1.665733e-002 1.113129e-002 -1.339304e-002 9.998484e-001 9.597411e-001
3.153971e-002 3.319129e-002 -1.665015e-002 6.983067e-002 -5.779142e-002 9.958835e-001 9.800126e-001
3.124465e-002 3.348187e-002 -1.664297e-002 9.614345e-002 -7.130899e-002 9.928099e-001 9.796208e-001
1.206765e-002 5.178320e-002 -2.169151e-002 1.822410e-001 -8.885048e-002 9.792312e-001 9.814965e-001
1.177689e-002 5.206955e-002 -2.168444e-002 2.610982e-001 -1.102069e-001 9.590006e-001 9.824152e-001
1.148614e-002 5.235590e-002 -2.167737e-002 2.892796e-001 -1.546717e-001 9.446661e-001 9.661981e-001
1.104829e-002 5.284489e-002 -2.112248e-002 4.750308e-001 -2.009081e-001 8.567273e-001 9.332397e-001
3.456653e-003 6.108830e-002 -1.371500e-002 -3.505089e-002 1.447816e-001 9.888426e-001 9.521965e-001
3.124906e-002 3.289618e-002 -1.665087e-002 1.041199e-001 -1.048665e-001 9.890208e-001 9.817906e-001
3.095400e-002 3.318677e-002 -1.664369e-002 1.128240e-001 -1.131391e-001 9.871526e-001 9.811083e-001
3.061884e-002 3.353639e-002 -1.644886e-002 1.273053e-001 -1.378919e-001 9.822317e-001 9.659302e-001
1.178125e-002 5.149239e-002 -2.169225e-002 2.245906e-001 -7.521904e-002 9.715458e-001 9.844095e-001
1.149049e-002 5.177875e-002 -2.168518e-002 3.038076e-001 -1.411651e-001 9.422172e-001 9.761074e-001
1.105265e-002 5.226690e-002 -2.113027e-002 4.265731e-001 -2.041858e-001 8.811036e-001 9.554330e-001
3.164271e-003 6.079144e-002 -1.371573e-002 1.113034e-002 -1.339211e-002 9.998484e-001 9.548818e-001
3.095841e-002 3.260108e-002 -1.665158e-002 1.238687e-001 -1.468235e-001 9.813763e-001 9.699500e-001
3.066335e-002 3.289168e-002 -1.664441e-002 1.242191e-001 -1.512824e-001 9.806545e-001 9.805917e-001
3.032804e-002 3.324114e-002 -1.644958e-002 1.151778e-001 -1.385268e-001 9.836383e-001 9.778116e-001
3.003283e-002 3.353189e-002 -1.644240e-002 9.633401e-002 -1.181510e-001 9.883118e-001 9.660619e-001
1.178559e-002 5.091525e-002 -2.170000e-002 3.285697e-001 -5.182857e-002 9.430566e-001 9.812964e-001
1.149483e-002 5.120161e-002 -2.169293e-002 4.115252e-001 -6.272738e-002 9.092372e-001 9.811982e-001
1.120407e-002 5.148797e-002 -2.168586e-002 4.480569e-001 -1.139531e-001 8.867128e-001 9.631218e-001
2.871889e-003 6.049458e-002 -1.371645e-002 3.899264e-001 -7.223601e-001 5.710983e-001 9.424685e-001
3.037270e-002 3.259658e-002 -1.664512e-002 1.456428e-001 -1.648656e-001 9.755037e-001 9.762676e-001
3.003725e-002 3.294590e-002 -1.645030e-002 1.084888e-001 -1.162071e-001 9.872822e-001 9.794341e-001
2.974203e-002 3.323665e-002 -1.644312e-002 7.783942e-002 -9.051092e-002 9.928488e-001 9.770352e-001
2.944683e-002 3.352739e-002 -1.643594e-002 1.113098e-002 -1.339280e-002 9.998484e-001 9.537615e-001
1.178995e-002 5.033809e-002 -2.170781e-002 3.546753e-001 -6.261740e-002 9.328904e-001 9.831499e-001
1.149919e-002 5.062445e-002 -2.170074e-002 3.810122e-001 -4.395753e-002 9.235244e-001 9.800566e-001
2.282685e-003 6.049005e-002 -1.370995e-002 3.684882e-001 -7.606669e-001 5.344177e-001 9.525889e-001
3.008205e-002 3.230147e-002 -1.664584e-002 1.452123e-001 -1.641827e-001 9.756830e-001 9.525326e-001
2.974646e-002 3.265065e-002 -1.645102e-002 9.976889e-002 -9.323044e-002 9.906332e-001 9.769118e-001
2.945124e-002 3.294140e-002 -1.644384e-002 6.738894e-002 -7.058215e-002 9.952270e-001 9.793645e-001
2.915603e-002 3.323214e-002 -1.643666e-002 1.113097e-002 -1.339270e-002 9.998484e-001 9.751111e-001
2.886082e-002 3.352288e-002 -1.642947e-002 1.113176e-002 -1.339368e-002 9.998483e-001 9.341569e-001
1.184293e-002 4.969493e-002 -2.189779e-002 3.539002e-001 1.661919e-002 9.351355e-001 9.805228e-001
1.150354e-002 5.004729e-002 -2.170852e-002 4.619716e-001 -4.367388e-002 8.858187e-001 9.824788e-001
1.121278e-002 5.033365e-002 -2.170144e-002 4.769528e-001 -3.324756e-002 8.782998e-001 9.696059e-001
1.077454e-002 5.081968e-002 -2.114656e-002 5.658092e-001 -1.678387e-002 8.243654e-001 9.383535e-001
1.990303e-003 6.019319e-002 -1.371067e-002 2.913270e-001 -7.995802e-001 5.251667e-001 9.153236e-001
1.033181e-003 6.136371e-002 -1.140855e-002 2.858411e-001 -8.073570e-001 5.162069e-001 9.040476e-001
2.945566e-002 3.235541e-002 -1.645174e-002 1.192922e-001 -4.919237e-002 9.916398e-001 9.641407e-001
2.916045e-002 3.264615e-002 -1.644455e-002 1.026477e-001 -1.937943e-002 9.945290e-001 9.787204e-001
2.886524e-002 3.293689e-002 -1.643737e-002 8.061085e-002 1.937324e-002 9.965574e-001 9.777505e-001
2.857003e-002 3.322763e-002 -1.643019e-002 1.042539e-001 1.921716e-002 9.943650e-001 9.668529e-001
1.208940e-002 4.889743e-002 -2.173041e-002 3.078908e-002 4.335099e-002 9.985853e-001 9.466881e-001
1.179864e-002 4.918379e-002 -2.172334e-002 2.591858e-001 5.803713e-003 9.658101e-001 9.743214e-001
1.150788e-002 4.947015e-002 -2.171627e-002 3.108439e-001 3.327993e-003 9.504552e-001 9.835706e-001
1.121713e-002 4.975650e-002 -2.170922e-002 4.632989e-001 -5.748001e-002 8.843360e-001 9.741881e-001
1.861754e-003 5.967930e-002 -1.428081e-002 2.999495e-001 -7.818094e-001 5.466300e-001 9.067462e-001
2.886965e-002 3.235091e-002 -1.644527e-002 1.297355e-001 2.381791e-002 9.912626e-001 9.662377e-001
2.857444e-002 3.264165e-002 -1.643809e-002 1.158634e-001 4.962807e-002 9.920245e-001 9.759148e-001
2.827924e-002 3.293239e-002 -1.643091e-002 1.255075e-001 5.400752e-002 9.906216e-001 9.684824e-001
1.209375e-002 4.832028e-002 -2.173819e-002 9.503850e-002 1.064051e-001 9.897705e-001 9.461170e-001
1.180299e-002 4.860664e-002 -2.173112e-002 1.017061e-001 9.580952e-002 9.901901e-001 9.770217e-001
1.151223e-002 4.889300e-002 -2.172405e-002 2.840584e-001 3.212784e-002 9.582686e-001 9.826633e-001
1.122148e-002 4.917935e-002 -2.171700e-002 3.157586e-001 1.656074e-002 9.486950e-001 9.806454e-001
1.078325e-002 4.966369e-002 -2.116214e-002 5.861357e-001 -2.063229e-002 8.099502e-001 9.664859e-001
1.328225e-003 5.960258e-002 -1.446377e-002 5.377918e-001 -7.404899e-001 4.030566e-001 9.063842e-001
2.824236e-002 3.240489e-002 -1.625100e-002 1.212057e-001 8.125976e-002 9.892957e-001 9.741890e-001
2.794700e-002 3.269577e-002 -1.624382e-002 1.191985e-001 4.915125e-002 9.916531e-001 9.774166e-001
2.765165e-002 3.298666e-002 -1.623663e-002 1.006604e-001 4.505011e-002 9.939004e-001 9.698544e-001
2.735629e-002 3.327755e-002 -1.622945e-002 9.225532e-002 1.215447e-002 9.956612e-001 9.618014e-001
1.180734e-002 4.802949e-002 -2.173890e-002 1.002820e-001 1.007081e-001 9.898492e-001 9.743960e-001
1.151659e-002 4.831585e-002 -2.173183e-002 9.165829e-002 8.501092e-002 9.921552e-001 9.814972e-001
1.122583e-002 4.860220e-002 -2.172475e-002 2.279690e-001 -3.845313e-003 9.736608e-001 9.761539e-001
2.795142e-002 3.210950e-002 -1.625172e-002 1.239422e-001 6.645383e-002 9.900618e-001 9.488767e-001
2.765607e-002 3.240038e-002 -1.624454e-002 9.179770e-002 2.872052e-002 9.953634e-001 9.777389e-001
2.736071e-002 3.269127e-002 -1.623735e-002 7.032463e-002 2.296575e-002 9.972597e-001 9.789488e-001
2.706535e-002 3.298215e-002 -1.623017e-002 5.800350e-002 3.116122e-004 9.983163e-001 9.780137e-001
2.677000e-002 3.327304e-002 -1.622298e-002 1.113017e-002 -1.339258e-002 9.998484e-001 9.589629e-001
1.205392e-002 4.723079e-002 -2.157138e-002 2.415892e-001 -2.083424e-002 9.701549e-001 9.761973e-001
1.176302e-002 4.751728e-002 -2.156431e-002 2.365505e-001 4.401657e-002 9.706216e-001 9.802078e-001
1.147211e-002 4.780379e-002 -2.155723e-002 1.567035e-001 1.188107e-001 9.804733e-001 9.784515e-001
1.118121e-002 4.809028e-002 -2.155016e-002 1.801918e-001 1.404127e-001 9.735580e-001 9.745107e-001
4.354875e-005 6.002097e-002 -1.103355e-002 7.769955e-001 -5.017083e-001 3.802194e-001 9.123656e-001
-2.553531e-004 6.031535e-002 -1.102628e-002 8.729759e-001 -2.142365e-001 4.381961e-001 9.032770e-001
2.736513e-002 3.210499e-002 -1.624526e-002 5.577652e-002 9.230187e-003 9.984006e-001 9.439095e-001
2.706977e-002 3.239588e-002 -1.623807e-002 6.843179e-002 3.130261e-002 9.971646e-001 9.765328e-001
2.677442e-002 3.268676e-002 -1.623089e-002 8.897529e-002 3.332352e-002 9.954762e-001 9.828072e-001
2.647906e-002 3.297765e-002 -1.622370e-002 9.688141e-002 5.242668e-002 9.939142e-001 9.742120e-001
1.210680e-002 4.658883e-002 -2.176153e-002 2.743778e-001 -7.081342e-002 9.590111e-001 9.722454e-001
1.176737e-002 4.693985e-002 -2.157209e-002 3.050833e-001 -4.191278e-002 9.514029e-001 9.742003e-001
1.147647e-002 4.722635e-002 -2.156501e-002 2.737352e-001 3.417296e-002 9.611979e-001 9.746052e-001
-3.069687e-004 5.979496e-002 -1.084140e-002 -2.208515e-002 2.159236e-001 9.761605e-001 9.252307e-001
2.648348e-002 3.239137e-002 -1.623160e-002 1.155806e-001 4.561048e-002 9.922504e-001 9.723496e-001
2.415240e-002 3.421859e-002 -2.133633e-002 1.896669e-002 2.770883e-001 9.606572e-001 9.633704e-001
2.386108e-002 3.450551e-002 -2.132924e-002 1.986461e-003 2.299044e-001 9.732112e-001 9.419166e-001
1.240191e-002 4.572533e-002 -2.177638e-002 3.136079e-001 1.326082e-001 9.402474e-001 9.565939e-001
1.211115e-002 4.601168e-002 -2.176931e-002 3.336411e-001 3.003085e-002 9.422218e-001 9.768929e-001
1.182039e-002 4.629804e-002 -2.176224e-002 3.608313e-001 -2.313542e-002 9.323441e-001 9.837084e-001
1.148082e-002 4.664892e-002 -2.157280e-002 3.722870e-001 -3.425885e-002 9.274852e-001 9.741100e-001
1.114090e-002 4.700015e-002 -2.138311e-002 3.362998e-001 2.506276e-002 9.414214e-001 9.558462e-001
-6.015452e-004 5.949587e-002 -1.084213e-002 8.744013e-002 1.713301e-001 9.813257e-001 9.128516e-001
2.615021e-002 3.215436e-002 -1.604433e-002 1.727038e-001 1.437847e-001 9.744226e-001 9.362025e-001
2.585470e-002 3.244539e-002 -1.603714e-002 1.833975e-001 1.240254e-001 9.751836e-001 9.748617e-001
2.555920e-002 3.273642e-002 -1.602995e-002 1.903692e-001 1.140546e-001 9.750647e-001 9.728622e-001
2.462957e-002 3.366867e-002 -1.582017e-002 0.000000e+000 0.000000e+000 0.000000e+000 9.339659e-001
2.382254e-002 3.398572e-002 -2.115411e-002 -4.869099e-002 3.030774e-001 9.517212e-001 9.708298e-001
1.235787e-002 4.521199e-002 -2.160181e-002 3.050068e-001 1.131792e-001 9.456010e-001 9.761347e-001
1.211551e-002 4.543452e-002 -2.177712e-002 3.826331e-001 1.172325e-001 9.164324e-001 9.780679e-001
1.182475e-002 4.572088e-002 -2.177005e-002 4.075709e-001 8.749712e-002 9.089721e-001 9.777894e-001
1.148517e-002 4.607149e-002 -2.158058e-002 4.333786e-001 7.118111e-002 8.983965e-001 9.769450e-001
1.114526e-002 4.642244e-002 -2.139090e-002 4.451070e-001 3.574334e-002 8.947637e-001 9.636111e-001
-8.961229e-004 5.919679e-002 -1.084286e-002 -9.842181e-002 3.409974e-001 9.348978e-001 9.055168e-001
2.353543e-002 3.369421e-002 -2.115481e-002 4.995316e-001 -8.173686e-001 2.870136e-001 9.721029e-001
2.299581e-002 3.420971e-002 -2.132357e-002 -8.222492e-003 2.278156e-001 9.736696e-001 9.739532e-001
2.270449e-002 3.449662e-002 -2.131649e-002 9.156466e-003 1.349367e-001 9.908119e-001 9.722598e-001
1.236222e-002 4.463457e-002 -2.160959e-002 3.156522e-001 8.266114e-002 9.452676e-001 9.798994e-001
1.207133e-002 4.492106e-002 -2.160252e-002 3.567737e-001 1.131967e-001 9.273074e-001 9.846797e-001
1.178042e-002 4.520756e-002 -2.159544e-002 3.956854e-001 1.219423e-001 9.102544e-001 9.779112e-001
1.110057e-002 4.590895e-002 -2.121597e-002 4.801880e-001 1.202067e-001 8.688900e-001 9.669966e-001
-9.480652e-004 5.867555e-002 -1.065784e-002 2.006620e-001 1.738039e-001 9.641198e-001 9.206614e-001
-1.247264e-003 5.897022e-002 -1.065056e-002 2.078032e-001 1.712789e-001 9.630584e-001 9.228534e-001
2.295686e-002 3.368976e-002 -2.114843e-002 -4.589159e-001 -8.861507e-001 6.429022e-002 9.641247e-001
2.241752e-002 3.420526e-002 -2.131720e-002 1.013230e-002 1.296025e-001 9.915143e-001 9.774386e-001
2.212620e-002 3.449217e-002 -2.131011e-002 1.113035e-002 -1.339409e-002 9.998484e-001 9.795230e-001
2.183488e-002 3.477909e-002 -2.130302e-002 1.113048e-002 -1.339468e-002 9.998483e-001 9.792408e-001
2.154354e-002 3.506601e-002 -2.129594e-002 -7.716180e-002 1.717121e-002 9.968707e-001 9.660421e-001
1.319127e-002 4.326056e-002 -2.145603e-002 2.900756e-002 -1.491418e-002 9.994679e-001 9.627150e-001
1.265747e-002 4.377064e-002 -2.162445e-002 1.292773e-001 9.247290e-002 9.872873e-001 9.796644e-001
1.236657e-002 4.405713e-002 -2.161738e-002 2.790011e-001 7.115132e-002 9.576512e-001 9.833568e-001
1.207568e-002 4.434363e-002 -2.161030e-002 3.357597e-001 8.263403e-002 9.383160e-001 9.832613e-001
1.178478e-002 4.463013e-002 -2.160322e-002 3.802381e-001 1.073207e-001 9.186410e-001 9.810120e-001
1.139612e-002 4.504417e-002 -2.123087e-002 4.509778e-001 1.279490e-001 8.833165e-001 9.778367e-001
1.110492e-002 4.533096e-002 -2.122376e-002 4.544607e-001 1.366787e-001 8.802184e-001 9.615896e-001
-1.299426e-003 5.844862e-002 -1.046531e-002 3.150565e-001 8.292311e-002 9.454433e-001 9.371068e-001
6.671390e-002 -8.730325e-003 -7.464492e-003 6.840138e-001 3.239041e-001 6.536140e-001 9.537863e-001
6.638786e-002 -8.392572e-003 -7.259792e-003 6.347846e-001 3.287839e-001 6.992493e-001 9.568152e-001
2.379945e-002 3.272289e-002 -1.601054e-002 1.335746e-002 -4.776444e-001 8.784517e-001 9.590502e-001
2.158021e-002 3.506764e-002 -1.407666e-002 9.733703e-001 1.286082e-003 2.292351e-001 9.094871e-001
2.183923e-002 3.420081e-002 -2.131082e-002 1.113008e-002 -1.339465e-002 9.998484e-001 9.763475e-001
2.154791e-002 3.448773e-002 -2.130373e-002 1.113123e-002 -1.339317e-002 9.998484e-001 9.812843e-001
2.125658e-002 3.477465e-002 -2.129665e-002 -5.425704e-002 6.273807e-002 9.965541e-001 9.802620e-001
2.071834e-002 3.528936e-002 -2.146528e-002 -4.783978e-002 2.573674e-001 9.651287e-001 9.709031e-001
1.353453e-002 4.233372e-002 -2.165346e-002 2.292920e-001 -1.320258e-001 9.643621e-001 9.631325e-001
1.295273e-002 4.290671e-002 -2.163931e-002 1.899142e-001 6.229610e-002 9.798223e-001 9.817295e-001
1.266182e-002 4.319321e-002 -2.163224e-002 1.338814e-001 1.675781e-001 9.767258e-001 9.852104e-001
1.237092e-002 4.347971e-002 -2.162516e-002 1.620890e-001 1.239166e-001 9.789647e-001 9.862466e-001
1.174041e-002 4.411602e-002 -2.142842e-002 3.516489e-001 8.323254e-002 9.324245e-001 9.745734e-001
1.140047e-002 4.446619e-002 -2.123863e-002 4.233249e-001 9.662858e-002 9.008102e-001 9.574437e-001
-1.294950e-003 5.785442e-002 -1.047332e-002 2.684425e-001 6.557155e-002 9.610614e-001 9.249825e-001
-1.594298e-003 5.814924e-002 -1.046604e-002 2.878948e-001 5.486394e-002 9.560892e-001 9.355135e-001
6.795265e-002 -1.056363e-002 -7.699177e-003 6.521618e-002 -8.468322e-002 9.942714e-001 9.706930e-001
6.764980e-002 -1.026537e-002 -7.691811e-003 1.113069e-002 -1.339294e-002 9.998484e-001 9.816731e-001
6.664971e-002 -9.214982e-003 -6.880064e-003 -7.900132e-001 3.188996e-001 5.236241e-001 9.874091e-001
6.227255e-002 -5.212540e-003 -1.048561e-002 3.083083e-001 -1.369253e-001 9.413806e-001 9.745206e-001
6.194691e-002 -4.875741e-003 -1.028408e-002 2.279564e-001 -1.074204e-001 9.677276e-001 9.751129e-001
6.162094e-002 -4.538602e-003 -1.008237e-002 1.873867e-001 -1.281803e-001 9.738871e-001 9.731632e-001
2.321286e-002 3.271839e-002 -1.600407e-002 1.335893e-002 -4.776427e-001 8.784526e-001 9.471541e-001
2.287338e-002 3.306828e-002 -1.580866e-002 -1.108959e-001 -5.776633e-001 8.087071e-001 9.566013e-001
2.067829e-002 3.477020e-002 -2.129027e-002 -3.923186e-002 2.178734e-001 9.751882e-001 9.796714e-001
2.043151e-002 3.499814e-002 -2.146599e-002 -6.973277e-002 1.914363e-001 9.790248e-001 9.811335e-001
2.014033e-002 3.528491e-002 -2.145891e-002 1.083434e-002 2.563799e-001 9.665154e-001 9.824816e-001
1.843872e-002 3.694568e-002 -2.159903e-002 2.542882e-001 -6.524421e-002 9.649252e-001 9.358753e-001
1.387745e-002 4.140778e-002 -2.185064e-002 7.964145e-002 -4.638576e-002 9.957438e-001 9.788516e-001
1.358669e-002 4.169414e-002 -2.184357e-002 1.991480e-001 -1.917348e-001 9.610296e-001 9.831200e-001
1.324798e-002 4.204278e-002 -2.165417e-002 2.493748e-001 -1.236991e-001 9.604743e-001 9.854764e-001
1.290894e-002 4.239177e-002 -2.146452e-002 2.646300e-001 -6.195560e-002 9.623578e-001 9.864451e-001
1.261789e-002 4.267840e-002 -2.145744e-002 2.171233e-001 7.867707e-002 9.729683e-001 9.837868e-001
1.232684e-002 4.296505e-002 -2.145036e-002 1.412460e-001 1.711172e-001 9.750736e-001 9.794080e-001
1.203581e-002 4.325168e-002 -2.144329e-002 1.751156e-001 1.448660e-001 9.738318e-001 9.721381e-001
-1.589822e-003 5.755503e-002 -1.047405e-002 3.277842e-001 -6.682613e-002 9.423862e-001 9.405982e-001
-1.946164e-003 5.792194e-002 -1.027330e-002 3.288153e-001 -6.142298e-002 9.423947e-001 9.236596e-001
6.858477e-002 -1.179886e-002 -7.918919e-003 6.518699e-003 -3.300346e-001 9.439463e-001 9.697279e-001
6.795718e-002 -1.116476e-002 -7.707279e-003 9.852160e-003 -2.107745e-001 9.774851e-001 9.862067e-001
6.765433e-002 -1.086650e-002 -7.699913e-003 4.492690e-002 -1.720417e-001 9.840646e-001 9.907002e-001
6.735151e-002 -1.056825e-002 -7.692546e-003 1.113089e-002 -1.339302e-002 9.998484e-001 9.909324e-001
6.635080e-002 -9.518473e-003 -6.880802e-003 -8.135844e-001 3.474825e-001 4.661934e-001 9.905878e-001
6.165071e-002 -5.176489e-003 -1.028487e-002 2.432489e-001 -7.192879e-002 9.672933e-001 9.894443e-001
6.135000e-002 -4.880334e-003 -1.027756e-002 2.376557e-001 -4.056658e-002 9.705020e-001 9.878306e-001
6.102373e-002 -4.543194e-003 -1.007578e-002 1.918458e-001 -4.135258e-002 9.805535e-001 9.867092e-001
6.072288e-002 -4.246892e-003 -1.006847e-002 2.253042e-001 -7.564868e-002 9.713472e-001 9.834173e-001
2.199085e-002 3.335495e-002 -1.579500e-002 -2.225282e-001 -7.165839e-001 6.610512e-001 9.464062e-001
1.956232e-002 3.528047e-002 -2.145253e-002 1.126600e-003 -2.535100e-001 9.673321e-001 9.763593e-001
1.893470e-002 3.591342e-002 -2.125554e-002 0.000000e+000 0.000000e+000 0.000000e+000 9.825765e-001
1.776939e-002 3.706109e-002 -2.122720e-002 1.050644e-001 -2.249938e-001 9.686791e-001 9.810646e-001
1.698787e-002 3.780115e-002 -2.157142e-002 7.343955e-001 3.905190e-001 5.551199e-001 9.689264e-001
1.441593e-002 4.031936e-002 -2.169026e-002 3.010274e-001 2.831626e-001 9.106050e-001 9.806308e-001
1.412503e-002 4.060586e-002 -2.168318e-002 8.637421e-002 2.624877e-001 9.610618e-001 9.824948e-001
1.359105e-002 4.111698e-002 -2.185138e-002 -1.129534e-002 -9.593327e-002 9.953237e-001 9.874114e-001
1.330029e-002 4.140333e-002 -2.184430e-002 1.510912e-001 -2.207559e-001 9.635550e-001 9.876716e-001
1.296143e-002 4.175185e-002 -2.165488e-002 2.590971e-001 -1.129315e-001 9.592263e-001 9.856276e-001
1.228272e-002 4.244988e-002 -2.127546e-002 3.487031e-001 1.785540e-001 9.200677e-001 9.749155e-001
-1.941687e-003 5.732745e-002 -1.028131e-002 3.229747e-001 -5.010869e-002 9.450801e-001 9.328600e-001
6.798393e-002 -1.180348e-002 -7.912291e-003 -8.616622e-004 -2.940128e-001 9.558011e-001 9.858630e-001
6.765887e-002 -1.146763e-002 -7.708015e-003 3.213977e-002 -2.415313e-001 9.698606e-001 9.892904e-001
6.735603e-002 -1.116938e-002 -7.700649e-003 1.083394e-001 -1.684047e-001 9.797461e-001 9.907338e-001
6.609832e-002 -9.899236e-003 -7.276750e-003 -8.128965e-001 2.916056e-001 5.041483e-001 9.633186e-001
6.560926e-002 -9.496134e-003 -8.246611e-003 -8.204532e-001 -4.809143e-002 5.696874e-001 9.645911e-001
6.530688e-002 -9.198333e-003 -8.239255e-003 0.000000e+000 0.000000e+000 0.000000e+000 9.614884e-001
6.132909e-002 -5.436694e-003 -1.009115e-002 2.559184e-001 2.412575e-002 9.663973e-001 9.879970e-001
6.102823e-002 -5.140388e-003 -1.008383e-002 2.435885e-001 -1.137572e-002 9.698120e-001 9.879323e-001
6.072738e-002 -4.844087e-003 -1.007652e-002 1.749830e-001 -5.931160e-002 9.827833e-001 9.888707e-001
6.040063e-002 -4.506764e-003 -9.874586e-003 1.816762e-001 -1.673575e-001 9.690125e-001 9.894485e-001
6.009962e-002 -4.210311e-003 -9.867264e-003 1.790496e-001 -1.800520e-001 9.672241e-001 9.899645e-001
5.977239e-002 -3.872496e-003 -9.665143e-003 1.314713e-001 -2.271522e-001 9.649441e-001 9.853545e-001
1.781958e-002 3.642313e-002 -2.141783e-002 6.793111e-001 -5.173919e-001 5.204248e-001 9.791892e-001
1.723721e-002 3.699668e-002 -2.140366e-002 5.534782e-001 8.123255e-001 1.838183e-001 9.844806e-001
1.689977e-002 3.734355e-002 -2.121373e-002 5.464827e-001 8.151294e-001 1.921477e-001 9.859299e-001
1.665484e-002 3.757023e-002 -2.138949e-002 6.753419e-001 6.761203e-001 2.945753e-001 9.865721e-001
1.524597e-002 3.894325e-002 -2.153673e-002 9.829683e-001 -1.782681e-003 1.837666e-001 9.857739e-001
1.495494e-002 3.922988e-002 -2.152965e-002 9.187233e-001 3.948244e-001 7.825441e-003 9.880502e-001
1.437284e-002 3.980317e-002 -2.151550e-002 3.010260e-001 2.831628e-001 9.106054e-001 9.816518e-001
1.408181e-002 4.008980e-002 -2.150841e-002 3.010274e-001 2.831625e-001 9.106050e-001 9.800616e-001
-2.236707e-003 5.702791e-002 -1.028204e-002 2.601799e-001 -5.442293e-002 9.640252e-001 9.233533e-001
6.948043e-002 -1.385829e-002 -7.760316e-003 4.381511e-003 5.897796e-001 8.075523e-001 9.674870e-001
6.891824e-002 -1.333542e-002 -8.139133e-003 -2.195091e-001 4.780083e-001 8.504845e-001 9.707728e-001
6.863757e-002 -1.307437e-002 -8.328253e-003 -1.754809e-001 -3.059235e-001 9.357442e-001 9.765024e-001
6.801065e-002 -1.244156e-002 -8.117056e-003 -3.213391e-002 -3.437726e-001 9.385030e-001 9.849151e-001
6.770811e-002 -1.214360e-002 -8.109697e-003 -5.382096e-002 -3.328089e-001 9.414572e-001 9.850780e-001
5.980311e-002 -4.511356e-003 -9.867995e-003 1.662287e-001 -1.994305e-001 9.657099e-001 9.889865e-001
5.947573e-002 -4.173692e-003 -9.665875e-003 1.267375e-001 -1.953857e-001 9.725030e-001 9.893382e-001
5.917458e-002 -3.877093e-003 -9.658549e-003 6.192468e-002 -1.495742e-001 9.868094e-001 9.889957e-001
1.961257e-002 3.444432e-002 -1.687279e-002 0.000000e+000 0.000000e+000 0.000000e+000 9.342535e-001
1.604133e-002 3.770087e-002 -2.010658e-002 6.316144e-001 7.231717e-001 2.794387e-001 9.804874e-001
1.579611e-002 3.792804e-002 -2.028344e-002 6.420899e-001 6.597989e-001 3.903664e-001 9.808369e-001
1.477773e-002 3.897408e-002 -1.970979e-002 9.841524e-001 6.775426e-002 1.638700e-001 9.727867e-001
-2.232220e-003 5.643340e-002 -1.029005e-002 1.113162e-002 -1.339305e-002 9.998484e-001 9.162857e-001
6.944200e-002 -1.438684e-002 -7.374085e-003 4.369301e-003 5.897849e-001 8.075485e-001 9.130694e-001
6.916050e-002 -1.412474e-002 -7.563986e-003 4.376258e-003 5.897781e-001 8.075535e-001 9.217989e-001
6.836171e-002 -1.341351e-002 -8.525288e-003 -2.859160e-001 -4.776089e-001 8.307477e-001 9.641517e-001
6.803734e-002 -1.307899e-002 -8.321634e-003 -2.097874e-001 -3.461967e-001 9.144053e-001 9.792774e-001
6.773496e-002 -1.278119e-002 -8.314278e-003 -1.069840e-001 -3.775685e-001 9.197807e-001 9.774888e-001
5.950661e-002 -4.812399e-003 -9.868727e-003 1.343618e-001 -2.190884e-001 9.664094e-001 9.666229e-001
5.887792e-002 -4.178289e-003 -9.659281e-003 6.474245e-002 -1.290702e-001 9.895197e-001 9.901372e-001
5.857676e-002 -3.881685e-003 -9.651956e-003 1.475776e-002 -1.053309e-001 9.943277e-001 9.914187e-001
5.827560e-002 -3.585086e-003 -9.644630e-003 3.207891e-002 -1.312588e-001 9.908290e-001 9.880363e-001
5.794729e-002 -3.246780e-003 -9.442252e-003 2.548079e-002 -2.279340e-001 9.733431e-001 9.817809e-001
1.602118e-002 3.732914e-002 -1.772149e-002 6.250110e-001 7.684151e-001 1.374751e-001 9.497333e-001
1.596297e-002 3.731539e-002 -1.864384e-002 6.413782e-001 7.423007e-001 1.939681e-001 9.471810e-001
1.552639e-002 3.735367e-002 -2.372348e-002 9.863796e-001 6.350452e-002 1.517312e-001 9.070398e-001
-1.928236e-003 5.554393e-002 -1.030535e-002 4.746869e-001 3.018763e-001 8.267666e-001 9.048365e-001
-2.227743e-003 5.583890e-002 -1.029807e-002 5.688506e-001 1.871769e-001 8.008581e-001 9.270988e-001
-2.527239e-003 5.613387e-002 -1.029078e-002 3.806184e-001 1.742816e-001 9.081605e-001 9.014222e-001
5.858127e-002 -4.479485e-003 -9.660013e-003 6.952882e-002 -8.546769e-002 9.939120e-001 9.730363e-001
5.828011e-002 -4.182881e-003 -9.652688e-003 1.054301e-002 -1.032225e-001 9.946024e-001 9.850007e-001
5.797895e-002 -3.886282e-003 -9.645363e-003 1.490367e-002 -1.498489e-001 9.885966e-001 9.891138e-001
5.767779e-002 -3.589678e-003 -9.638037e-003 5.455735e-002 -1.930361e-001 9.796737e-001 9.900059e-001
5.734917e-002 -3.251378e-003 -9.435656e-003 4.830324e-002 -2.116498e-001 9.761512e-001 9.876696e-001
5.704786e-002 -2.954627e-003 -9.428326e-003 4.118977e-002 -2.116829e-001 9.764701e-001 9.854365e-001
5.768229e-002 -4.187478e-003 -9.646094e-003 8.974997e-003 -1.487753e-001 9.888303e-001 9.693322e-001
5.738113e-002 -3.890874e-003 -9.638769e-003 4.675018e-002 -2.027402e-001 9.781160e-001 9.851148e-001
5.675105e-002 -3.255975e-003 -9.429058e-003 4.509528e-002 -2.115817e-001 9.763194e-001 9.904716e-001
5.644974e-002 -2.959224e-003 -9.421729e-003 3.582036e-002 -2.015173e-001 9.788297e-001 9.894280e-001
5.612034e-002 -2.620438e-003 -9.219154e-003 2.982905e-002 -2.414644e-001 9.699512e-001 9.828988e-001
-2.390490e-003 5.486165e-002 -9.732672e-003 3.064137e-001 3.651700e-001 8.790686e-001 9.051327e-001
-2.690443e-003 5.515706e-002 -9.725376e-003 3.697191e-001 3.351999e-001 8.665730e-001 9.114441e-001
7.023846e-002 -1.687738e-002 -6.232890e-003 -6.064196e-001 2.082329e-001 7.673945e-001 9.573417e-001
6.969464e-002 -1.638470e-002 -6.812857e-003 -3.423742e-001 4.477586e-002 9.384962e-001 9.819119e-001
5.708448e-002 -4.192070e-003 -9.639501e-003 5.131787e-002 -1.861675e-001 9.811769e-001 9.471374e-001
5.678332e-002 -3.895471e-003 -9.632175e-003 6.324264e-002 -1.966032e-001 9.784414e-001 9.830071e-001
5.645425e-002 -3.557323e-003 -9.429791e-003 6.536441e-002 -1.895243e-001 9.796979e-001 9.873527e-001
5.615294e-002 -3.260573e-003 -9.422462e-003 3.241048e-002 -1.977737e-001 9.797118e-001 9.902293e-001
5.585163e-002 -2.963822e-003 -9.415132e-003 2.270261e-002 -1.905293e-001 9.814190e-001 9.881410e-001
5.552193e-002 -2.625047e-003 -9.212613e-003 1.505229e-002 -2.445340e-001 9.695239e-001 9.824842e-001
-2.743449e-003 5.463223e-002 -9.539234e-003 2.340951e-001 1.574903e-001 9.593729e-001 9.285377e-001
-3.043550e-003 5.492779e-002 -9.531935e-003 2.877997e-001 1.332506e-001 9.483753e-001 9.047962e-001
7.022184e-002 -1.744608e-002 -6.042376e-003 -6.633589e-001 1.323863e-001 7.364976e-001 9.645212e-001
6.969918e-002 -1.698735e-002 -6.820980e-003 -5.123265e-001 1.184725e-001 8.505797e-001 9.704445e-001
6.939557e-002 -1.668834e-002 -6.813595e-003 -3.688303e-001 -3.843653e-002 9.287017e-001 9.855542e-001
6.911366e-002 -1.642467e-002 -7.004067e-003 -2.107317e-001 -1.258460e-002 9.774629e-001 9.872257e-001
6.881021e-002 -1.612581e-002 -6.996685e-003 -1.841055e-001 -2.488038e-002 9.825915e-001 9.866589e-001
5.585613e-002 -3.561920e-003 -9.423194e-003 3.460653e-002 -1.850692e-001 9.821160e-001 9.886538e-001
5.555482e-002 -3.265169e-003 -9.415865e-003 7.728390e-002 -9.322203e-001 3.535427e-001 9.891846e-001
5.525351e-002 -2.968419e-003 -9.408535e-003 -2.721462e-002 -9.701293e-001 2.410572e-001 9.880573e-001
5.492351e-002 -2.629639e-003 -9.205953e-003 -1.863994e-002 -9.823420e-001 1.861631e-001 9.824227e-001
5.462204e-002 -2.332737e-003 -9.198620e-003 9.187856e-001 2.736136e-001 2.845498e-001 9.634188e-001
-3.039061e-003 5.433209e-002 -9.539964e-003 2.113405e-001 1.472751e-001 9.662532e-001 9.237636e-001
7.050958e-002 -1.831513e-002 -5.859094e-003 -1.589293e-001 5.336646e-002 9.858466e-001 9.234731e-001
6.940011e-002 -1.729099e-002 -6.821718e-003 -4.931149e-001 7.396115e-002 8.668145e-001 9.816051e-001
6.911820e-002 -1.702701e-002 -7.012186e-003 -3.358980e-001 -2.467742e-002 9.415751e-001 9.870757e-001
6.881475e-002 -1.672816e-002 -7.004804e-003 -1.900200e-001 -1.519940e-002 9.816626e-001 9.877629e-001
6.851129e-002 -1.642930e-002 -6.997423e-003 -1.447521e-001 -2.020537e-002 9.892616e-001 9.699090e-001
5.525802e-002 -3.566518e-003 -9.416597e-003 7.357892e-003 -9.443837e-001 3.287632e-001 9.822522e-001
5.495670e-002 -3.269768e-003 -9.409267e-003 -2.267848e-001 -9.578531e-001 1.763126e-001 9.878412e-001
5.465540e-002 -2.973017e-003 -9.401939e-003 -2.614421e-001 -9.580436e-001 1.174750e-001 9.845573e-001
5.432509e-002 -2.634237e-003 -9.199353e-003 5.344293e-001 8.441576e-001 4.222710e-002 9.836534e-001
1.257503e-002 3.868762e-002 -5.241969e-003 0.000000e+000 0.000000e+000 0.000000e+000 9.169695e-001
1.227126e-002 3.898678e-002 -5.234580e-003 0.000000e+000 0.000000e+000 0.000000e+000 9.190106e-001
-3.092267e-003 5.380659e-002 -9.353620e-003 1.046129e-001 1.754098e-001 9.789216e-001 9.110157e-001
7.051414e-002 -1.891932e-002 -5.867238e-003 -7.348111e-001 5.182403e-002 6.762891e-001 9.159227e-001
7.020975e-002 -1.861954e-002 -5.859834e-003 -7.270371e-001 4.482955e-003 6.865835e-001 9.567516e-001
6.912274e-002 -1.762937e-002 -7.020305e-003 -4.612372e-001 1.747247e-003 8.872752e-001 9.863960e-001
6.881928e-002 -1.733050e-002 -7.012923e-003 -1.779038e-001 -2.799718e-002 9.836496e-001 9.829158e-001
5.465990e-002 -3.571115e-003 -9.410000e-003 7.135574e-001 6.983192e-001 5.644577e-002 9.504933e-001
5.383226e-002 -2.516800e-003 -5.857891e-003 7.904751e-001 5.898548e-001 1.649864e-001 9.660605e-001
5.352819e-002 -2.217331e-003 -5.850495e-003 9.069325e-001 3.427455e-001 2.449469e-001 9.548599e-001
2.405490e-003 4.756722e-002 -1.293948e-002 0.000000e+000 0.000000e+000 0.000000e+000 9.047660e-001
7.051869e-002 -1.952351e-002 -5.875382e-003 -7.403092e-001 3.319694e-002 6.714464e-001 9.341165e-001
7.021430e-002 -1.922373e-002 -5.867978e-003 -7.571344e-001 4.810929e-002 6.514852e-001 9.684232e-001
6.912728e-002 -1.823171e-002 -7.028424e-003 -8.870617e-002 -4.197624e-002 9.951730e-001 9.807078e-001
6.882383e-002 -1.793286e-002 -7.021043e-003 -1.192192e-001 -3.089068e-002 9.923873e-001 9.766474e-001
6.852037e-002 -1.763400e-002 -7.013661e-003 -9.925404e-002 -3.001553e-002 9.946093e-001 9.417102e-001
-2.385316e-003 5.210736e-002 -6.664495e-003 0.000000e+000 0.000000e+000 0.000000e+000 9.134808e-001
7.021886e-002 -1.982793e-002 -5.876121e-003 -7.510558e-001 4.472981e-002 6.587217e-001 9.722249e-001
6.943528e-002 -1.913293e-002 -7.043924e-003 -6.437095e-001 -9.662344e-002 7.591455e-001 9.665174e-001
6.913182e-002 -1.883407e-002 -7.036543e-003 -5.801598e-001 -7.846105e-002 8.107148e-001 9.835715e-001
6.882837e-002 -1.853520e-002 -7.029161e-003 -1.196692e-001 -7.141859e-002 9.902417e-001 9.762051e-001
7.022341e-002 -2.043212e-002 -5.884265e-003 1.113127e-002 -1.339298e-002 9.998484e-001 9.645786e-001
6.943981e-002 -1.973527e-002 -7.052043e-003 -6.463917e-001 -1.853072e-002 7.627806e-001 9.666894e-001
6.913636e-002 -1.943642e-002 -7.044662e-003 -5.622807e-001 -5.179697e-002 8.253226e-001 9.848458e-001
6.883290e-002 -1.913756e-002 -7.037280e-003 -1.766144e-001 -8.762315e-002 9.803721e-001 9.837162e-001
5.779067e-002 -8.881163e-003 -1.657213e-002 -3.901306e-001 -2.379419e-002 9.204520e-001 9.136434e-001
5.752176e-002 -8.628148e-003 -1.675290e-002 -2.892725e-001 2.698426e-002 9.568664e-001 9.174496e-001
5.722611e-002 -8.336974e-003 -1.674571e-002 -3.440783e-001 -1.627493e-001 9.247285e-001 9.327329e-001
7.022797e-002 -2.103630e-002 -5.892409e-003 0.000000e+000 0.000000e+000 0.000000e+000 9.589964e-001
6.914090e-002 -2.003876e-002 -7.052781e-003 -5.808417e-001 1.695896e-002 8.138399e-001 9.843063e-001
6.885926e-002 -1.977353e-002 -7.243027e-003 -2.097259e-001 -8.326846e-002 9.742081e-001 9.872693e-001
6.855597e-002 -1.947482e-002 -7.235649e-003 -2.154427e-001 -8.293778e-002 9.729881e-001 9.743763e-001
5.779510e-002 -9.468313e-003 -1.658004e-002 -9.479446e-001 -2.766848e-001 1.576277e-001 9.207445e-001
5.696203e-002 -8.670905e-003 -1.693419e-002 -3.613845e-001 -2.109229e-001 9.082471e-001 9.481104e-001
5.666653e-002 -8.379878e-003 -1.692700e-002 -2.731338e-001 -2.999083e-001 9.140311e-001 9.370996e-001
5.063545e-002 -2.393940e-003 -1.603078e-002 3.037300e-001 2.859506e-001 9.088346e-001 9.714134e-001
5.033936e-002 -2.102334e-003 -1.602358e-002 2.857320e-001 1.110222e-001 9.518568e-001 9.770086e-001
4.971641e-002 -1.477252e-003 -1.582061e-002 2.268379e-001 1.718898e-002 9.737808e-001 9.590344e-001
6.886380e-002 -2.037558e-002 -7.251141e-003 -2.156008e-001 -6.396140e-002 9.743845e-001 9.852067e-001
6.856050e-002 -2.007687e-002 -7.243764e-003 -2.227763e-001 -6.089002e-002 9.729661e-001 9.779010e-001
5.812190e-002 -1.038421e-002 -1.678310e-002 -2.733027e-001 -3.001402e-001 9.139045e-001 9.016314e-001
5.140841e-002 -3.693396e-003 -1.530501e-002 1.113092e-002 -1.339316e-002 9.998484e-001 9.706892e-001
5.111174e-002 -3.401214e-003 -1.529779e-002 1.113233e-002 -1.339346e-002 9.998483e-001 9.584330e-001
5.001708e-002 -2.357022e-003 -1.583574e-002 2.742639e-001 1.265549e-001 9.532907e-001 9.903679e-001
4.972085e-002 -2.065269e-003 -1.582853e-002 2.192174e-001 4.017227e-003 9.756678e-001 9.927700e-001
4.942461e-002 -1.773521e-003 -1.582133e-002 1.890015e-001 -1.763351e-002 9.818184e-001 9.917606e-001
4.909728e-002 -1.439855e-003 -1.562534e-002 1.160720e-001 -3.336389e-002 9.926803e-001 9.918820e-001
4.880090e-002 -1.147960e-003 -1.561813e-002 8.210866e-002 -1.642404e-002 9.964880e-001 9.925532e-001
4.850451e-002 -8.560658e-004 -1.561092e-002 1.112985e-002 -1.339389e-002 9.998484e-001 9.881402e-001
6.886834e-002 -2.097762e-002 -7.259256e-003 -1.713415e-001 -7.343500e-002 9.824710e-001 9.824572e-001
6.856504e-002 -2.067891e-002 -7.251879e-003 -1.537773e-001 -6.569779e-002 9.859191e-001 9.707180e-001
5.815288e-002 -1.100816e-002 -1.697875e-002 0.000000e+000 0.000000e+000 0.000000e+000 9.088426e-001
5.111617e-002 -3.990108e-003 -1.530573e-002 1.113042e-002 -1.339284e-002 9.998484e-001 9.642895e-001
4.910171e-002 -2.028172e-003 -1.563327e-002 1.889818e-001 6.570392e-003 9.819586e-001 9.910583e-001
4.880533e-002 -1.736272e-003 -1.562606e-002 1.029815e-001 -2.126420e-002 9.944559e-001 9.940653e-001
4.850895e-002 -1.444378e-003 -1.561885e-002 6.598170e-002 -1.461176e-002 9.977139e-001 9.956284e-001
4.821257e-002 -1.152483e-003 -1.561164e-002 1.113058e-002 -1.339310e-002 9.998484e-001 9.955056e-001
4.791619e-002 -8.605887e-004 -1.560444e-002 1.113067e-002 -1.339335e-002 9.998484e-001 9.925371e-001
4.761980e-002 -5.686943e-004 -1.559723e-002 1.113098e-002 -1.339273e-002 9.998484e-001 9.843516e-001
6.993725e-002 -2.254911e-002 -5.909436e-003 0.000000e+000 0.000000e+000 0.000000e+000 9.424486e-001
6.963287e-002 -2.224933e-002 -5.902032e-003 0.000000e+000 0.000000e+000 0.000000e+000 9.466253e-001
6.887288e-002 -2.157967e-002 -7.267371e-003 -2.885805e-001 -8.468985e-002 9.537027e-001 9.720324e-001
6.856958e-002 -2.128096e-002 -7.259993e-003 -1.783052e-001 -9.355355e-002 9.795178e-001 9.626658e-001
5.112061e-002 -4.579005e-003 -1.531366e-002 1.112977e-002 -1.339251e-002 9.998484e-001 9.670147e-001
4.851338e-002 -2.032689e-003 -1.562678e-002 8.746395e-002 -2.609204e-002 9.958259e-001 9.869156e-001
4.821700e-002 -1.740795e-003 -1.561958e-002 3.786887e-002 -2.261976e-002 9.990267e-001 9.936429e-001
4.792062e-002 -1.448900e-003 -1.561237e-002 1.113061e-002 -1.339317e-002 9.998484e-001 9.960153e-001
4.762424e-002 -1.157006e-003 -1.560516e-002 1.113070e-002 -1.339309e-002 9.998484e-001 9.948120e-001
4.732786e-002 -8.651117e-004 -1.559795e-002 1.113073e-002 -1.339315e-002 9.998484e-001 9.927349e-001
6.859606e-002 -2.191552e-002 -7.465513e-003 -2.683567e-001 -1.727380e-001 9.477058e-001 9.256576e-001
6.768662e-002 -2.101985e-002 -7.443392e-003 -7.952064e-002 -1.930805e-001 9.779552e-001 9.464819e-001
6.738347e-002 -2.072129e-002 -7.436018e-003 -2.022800e-002 -1.773350e-001 9.839426e-001 9.007416e-001
5.082837e-002 -4.875717e-003 -1.531439e-002 1.349144e-002 -8.347700e-002 9.964184e-001 9.704264e-001
5.053169e-002 -4.583530e-003 -1.530717e-002 2.113605e-002 -8.405072e-002 9.962373e-001 9.317854e-001
4.762867e-002 -1.745318e-003 -1.561309e-002 4.083687e-002 2.372183e-002 9.988842e-001 9.890012e-001
4.733229e-002 -1.453423e-003 -1.560588e-002 2.610688e-002 3.347924e-002 9.990984e-001 9.925104e-001
4.703591e-002 -1.161529e-003 -1.559867e-002 2.322974e-001 -7.538961e-001 6.145557e-001 9.946735e-001
4.673953e-002 -8.696346e-004 -1.559146e-002 7.332674e-002 -9.429742e-001 3.246888e-001 9.946746e-001
4.644314e-002 -5.777349e-004 -1.558425e-002 -2.444933e-001 -9.653818e-001 9.089038e-002 9.883053e-001
6.771353e-002 -2.165422e-002 -7.648735e-003 -1.588493e-001 -3.066929e-001 9.384596e-001 9.064189e-001
6.738801e-002 -2.132303e-002 -7.444128e-003 -2.512360e-002 -1.718436e-001 9.848038e-001 9.617998e-001
6.708486e-002 -2.102447e-002 -7.436755e-003 4.456012e-002 -1.552045e-001 9.868768e-001 9.538925e-001
5.083281e-002 -5.464611e-003 -1.532232e-002 -9.528407e-002 -1.095140e-001 9.894077e-001 9.692302e-001
5.053613e-002 -5.172429e-003 -1.531511e-002 2.385737e-002 -1.326567e-001 9.908749e-001 9.619410e-001
