ply
format ascii 1.0
comment Written by HALCON (export v1.0)
element vertex 558
property float x
property float y
property float z
property float nx
property float ny
property float nz
end_header
-8.213888e-003 1.347817e-002 6.941140e-003 5.615494e-001 -8.034713e-001 1.977275e-001
-8.125787e-003 1.337187e-002 6.607148e-003 5.662196e-001 -7.943271e-001 2.200907e-001
-8.060899e-003 1.328104e-002 5.941074e-003 6.082845e-001 -7.541940e-001 2.473487e-001
-7.973183e-003 1.317522e-002 5.608930e-003 7.011180e-001 -6.711615e-001 2.407817e-001
-7.908758e-003 1.308500e-002 4.946521e-003 8.780408e-001 -4.156268e-001 2.372735e-001
-6.606753e-003 1.165167e-002 4.616214e-003 0.000000e+000 0.000000e+000 0.000000e+000
1.453159e-003 2.771316e-003 2.321001e-003 2.198545e-001 9.754142e-001 1.520167e-002
1.499794e-003 2.700909e-003 1.670604e-003 1.213021e-001 9.921870e-001 2.916971e-002
1.546258e-003 2.630760e-003 1.022591e-003 -3.292049e-001 -9.442580e-001 1.020090e-003
2.468166e-003 1.769727e-003 5.940972e-003 9.836729e-001 -1.743146e-001 4.474500e-002
2.415457e-003 1.777943e-003 4.286458e-003 9.787599e-001 -1.985058e-001 5.122954e-002
2.460581e-003 1.708971e-003 3.628878e-003 9.731098e-001 -2.254180e-001 4.737091e-002
2.603374e-003 1.562667e-003 3.957354e-003 9.975117e-001 2.879977e-002 6.434993e-002
3.300783e-003 9.093019e-004 7.610828e-003 0.000000e+000 0.000000e+000 0.000000e+000
4.222509e-003 -2.173253e-004 3.628861e-003 7.217901e-001 -2.760020e-001 6.346983e-001
4.298405e-003 -3.100933e-004 3.300980e-003 8.874515e-001 -3.943022e-001 2.386539e-001
4.408422e-003 -4.303744e-004 3.300978e-003 8.819034e-001 -4.319627e-001 1.888245e-001
4.518443e-003 -5.506583e-004 3.300977e-003 8.313869e-001 -5.393993e-001 1.335824e-001
4.525257e-003 -5.873754e-004 2.320971e-003 8.092603e-001 -5.794908e-001 9.637544e-002
-2.574349e-002 3.291779e-002 7.947531e-003 7.599387e-001 -5.857598e-001 2.817421e-001
-2.563888e-002 3.279316e-002 7.611691e-003 7.854036e-001 -5.496317e-001 2.846862e-001
-2.554138e-002 3.266611e-002 6.941889e-003 7.961009e-001 -5.389392e-001 2.752596e-001
-1.944311e-002 2.589779e-002 3.629666e-003 -1.944292e-001 9.547482e-001 2.250626e-001
-1.932043e-002 2.577370e-002 3.958142e-003 -4.935084e-001 8.476561e-001 1.947526e-001
-1.902295e-002 2.550904e-002 5.941760e-003 -3.722883e-001 9.101135e-001 1.819201e-001
-1.632613e-002 2.244014e-002 1.996250e-003 -3.677326e-002 -8.103018e-001 5.848579e-001
-1.621651e-002 2.232030e-002 1.996249e-003 -6.587403e-002 -7.561055e-001 6.511260e-001
-1.610689e-002 2.220045e-002 1.996248e-003 -3.043623e-001 -5.376865e-001 7.862931e-001
-1.601279e-002 2.208765e-002 1.671346e-003 -4.625059e-001 -3.289567e-001 8.233321e-001
-1.588766e-002 2.196077e-002 1.996246e-003 -4.843968e-001 -2.118221e-001 8.488175e-001
-1.577804e-002 2.184092e-002 1.996245e-003 -4.769797e-001 -5.926676e-002 8.769138e-001
-1.566842e-002 2.172108e-002 1.996244e-003 -3.992023e-001 1.579024e-001 9.031636e-001
-1.555881e-002 2.160124e-002 1.996243e-003 -2.062781e-001 3.622171e-001 9.089819e-001
-1.544919e-002 2.148139e-002 1.996242e-003 7.442363e-002 3.840643e-001 9.203020e-001
-1.533957e-002 2.136155e-002 1.996241e-003 -7.157879e-002 9.930791e-001 9.311476e-002
-1.522995e-002 2.124171e-002 1.996240e-003 -7.698982e-004 9.952657e-001 9.718867e-002
-1.498870e-002 2.105798e-002 4.616873e-003 6.701183e-001 7.422326e-001 5.673731e-003
-1.491157e-002 2.095354e-002 3.958100e-003 -9.903795e-001 -1.383009e-001 4.626817e-003
-1.477483e-002 2.075407e-002 2.321732e-003 9.685845e-001 -1.088049e-001 2.236193e-001
-1.469858e-002 2.065084e-002 1.671334e-003 9.551920e-001 -1.001951e-001 2.785126e-001
-1.460585e-002 2.053956e-002 1.347028e-003 8.996984e-001 -3.076277e-001 3.096901e-001
-1.116386e-002 1.696777e-002 7.611551e-003 8.612133e-001 -4.675501e-001 1.992699e-001
-1.109316e-002 1.687003e-002 6.941749e-003 8.841568e-001 -4.370453e-001 1.651006e-001
-1.085372e-002 1.650709e-002 3.629583e-003 9.005859e-001 -4.012216e-001 1.672309e-001
-1.076400e-002 1.639900e-002 3.301701e-003 8.130834e-001 -4.621212e-001 3.540331e-001
-1.067445e-002 1.629110e-002 2.974445e-003 7.871802e-001 -4.472799e-001 4.246033e-001
-1.058506e-002 1.618340e-002 2.647755e-003 7.974561e-001 -4.157982e-001 4.372362e-001
-1.047525e-002 1.606333e-002 2.647754e-003 6.698313e-001 -4.117190e-001 6.179106e-001
-8.134433e-003 1.366599e-002 7.947360e-003 5.632622e-001 -8.083431e-001 1.712225e-001
-8.092380e-003 1.358931e-002 6.941720e-003 5.763524e-001 -7.943642e-001 1.918423e-001
-8.004391e-003 1.348291e-002 6.607729e-003 5.565459e-001 -8.018247e-001 2.175633e-001
-5.339494e-003 1.056941e-002 6.607702e-003 0.000000e+000 0.000000e+000 0.000000e+000
2.230395e-003 2.334238e-003 7.947261e-003 -4.298779e-001 -9.025517e-001 2.460433e-002
2.309052e-003 2.237988e-003 7.611420e-003 -3.595801e-001 -9.330589e-001 1.016674e-002
2.354792e-003 2.167525e-003 6.941619e-003 -5.008234e-001 -8.648136e-001 3.568350e-002
2.400364e-003 2.097322e-003 6.274292e-003 -9.395888e-001 -3.298957e-001 9.133288e-002
2.445767e-003 2.027379e-003 5.609409e-003 9.569174e-001 -2.825264e-001 6.699196e-002
2.491001e-003 1.957695e-003 4.947000e-003 9.263188e-001 -3.710727e-001 6.510377e-002
2.503435e-003 1.913896e-003 3.957931e-003 9.349754e-001 -3.491492e-001 6.257708e-002
2.580974e-003 1.819091e-003 3.629453e-003 9.216788e-001 -3.834023e-001 5.925281e-002
2.691095e-003 1.698697e-003 3.629452e-003 9.320154e-001 -3.590246e-001 4.948439e-002
4.308668e-003 -7.978981e-005 3.301555e-003 6.689246e-001 8.301530e-003 7.432839e-001
4.418688e-003 -2.000737e-004 3.301554e-003 9.600520e-001 -1.952708e-001 2.004231e-001
4.528705e-003 -3.203549e-004 3.301553e-003 9.357268e-001 -3.117367e-001 1.650321e-001
4.501205e-003 -3.301593e-004 1.996049e-003 8.772205e-001 -4.622470e-001 1.296611e-001
4.610823e-003 -4.500034e-004 1.996048e-003 7.216511e-001 -6.861748e-001 9.156279e-002
4.686019e-003 -5.421352e-004 1.671146e-003 3.776744e-002 9.894274e-001 1.400247e-001
-2.562165e-002 3.302924e-002 7.948113e-003 7.469686e-001 -6.067472e-001 2.718375e-001
-2.552409e-002 3.290163e-002 7.277058e-003 7.524569e-001 -5.974507e-001 2.772387e-001
-2.541987e-002 3.277725e-002 6.942470e-003 7.520277e-001 -6.007729e-001 2.711575e-001
-2.532296e-002 3.265047e-002 6.275141e-003 7.486182e-001 -6.094682e-001 2.609970e-001
-2.522640e-002 3.252415e-002 5.610256e-003 7.173460e-001 -6.505711e-001 2.493431e-001
-1.921260e-002 2.588751e-002 3.630240e-003 -4.422469e-001 8.731984e-001 2.047979e-001
-1.748581e-002 2.413442e-002 7.948034e-003 0.000000e+000 0.000000e+000 0.000000e+000
-1.609667e-002 2.242992e-002 1.996822e-003 6.287829e-003 -7.763707e-001 6.302452e-001
-1.598705e-002 2.231007e-002 1.996821e-003 -1.988057e-001 -5.567426e-001 8.065444e-001
-1.587743e-002 2.219023e-002 1.996820e-003 -3.412268e-001 -2.457655e-001 9.072836e-001
-1.576782e-002 2.207038e-002 1.996819e-003 -3.301746e-001 -7.254463e-002 9.411281e-001
-1.565820e-002 2.195054e-002 1.996818e-003 -2.809374e-001 1.224340e-002 9.596480e-001
-1.554858e-002 2.183070e-002 1.996817e-003 -1.082891e-001 1.095753e-001 9.880621e-001
-1.543896e-002 2.171085e-002 1.996815e-003 2.853855e-002 1.874659e-001 9.818565e-001
-1.532935e-002 2.159101e-002 1.996815e-003 8.576262e-002 -5.383930e-002 9.948598e-001
-1.521973e-002 2.147117e-002 1.996813e-003 -2.935592e-001 9.483468e-001 1.202554e-001
-1.511011e-002 2.135132e-002 1.996812e-003 -9.153775e-002 9.874083e-001 1.290179e-001
-1.486798e-002 2.116841e-002 4.617450e-003 1.070917e-001 9.914250e-001 7.488574e-002
-1.487432e-002 2.110369e-002 2.322307e-003 8.357434e-001 5.454973e-001 6.297421e-002
-1.476460e-002 2.098374e-002 2.322306e-003 9.941034e-001 4.285206e-003 1.083515e-001
-1.467164e-002 2.087195e-002 1.996808e-003 9.695209e-001 -8.857385e-002 2.284380e-001
-1.459565e-002 2.076860e-002 1.347601e-003 9.466553e-001 -1.546239e-001 2.827280e-001
-1.448623e-002 2.064898e-002 1.347600e-003 8.873936e-001 -3.285523e-001 3.233976e-001
-1.439378e-002 2.053780e-002 1.023890e-003 7.487648e-001 -4.128198e-001 5.185857e-001
-8.012587e-003 1.377744e-002 7.947943e-003 5.948541e-001 -7.876440e-001 1.605166e-001
-7.947671e-003 1.368552e-002 7.276889e-003 5.567687e-001 -8.095589e-001 1.860723e-001
-3.602473e-003 8.810896e-003 3.302208e-003 6.511141e-001 -4.565786e-001 6.062891e-001
2.352241e-003 2.445687e-003 7.947843e-003 -9.864408e-001 1.246837e-001 1.067172e-001
2.430785e-003 2.349333e-003 7.612002e-003 -6.118423e-001 7.836968e-001 1.070898e-001
2.476300e-003 2.278664e-003 6.942200e-003 -7.978036e-001 -6.028220e-001 1.072807e-002
2.521647e-003 2.208256e-003 6.274872e-003 -9.936344e-001 -1.109725e-001 1.938378e-002
2.566826e-003 2.138108e-003 5.609988e-003 9.966155e-001 -7.889315e-002 2.309467e-002
2.611837e-003 2.068220e-003 4.947577e-003 9.909447e-001 -1.322968e-001 2.293525e-002
2.623938e-003 2.024117e-003 3.958507e-003 9.936203e-001 -1.092935e-001 2.781458e-002
2.701367e-003 1.929211e-003 3.630029e-003 9.852602e-001 -1.691113e-001 2.576092e-002
4.428950e-003 3.022846e-005 3.302130e-003 5.150980e-001 6.412391e-002 8.547294e-001
4.538970e-003 -9.005546e-005 3.302129e-003 9.934104e-001 -4.335939e-003 1.145292e-001
4.648988e-003 -2.103366e-004 3.302128e-003 9.853954e-001 -1.009436e-001 1.371358e-001
4.621048e-003 -2.205427e-004 1.996621e-003 9.639912e-001 -2.279715e-001 1.369301e-001
4.696235e-003 -3.128843e-004 1.671719e-003 1.960553e-001 -9.804674e-001 1.568289e-002
4.805753e-003 -4.326185e-004 1.671718e-003 2.028144e-001 9.617431e-001 1.841645e-001
-2.549980e-002 3.314069e-002 7.948695e-003 7.713543e-001 -5.813457e-001 2.589398e-001
-2.540247e-002 3.301287e-002 7.277640e-003 7.714789e-001 -5.748015e-001 2.728069e-001
-2.530550e-002 3.288554e-002 6.609058e-003 7.805288e-001 -5.669892e-001 2.632451e-001
-2.520168e-002 3.276140e-002 6.275720e-003 7.555633e-001 -6.001458e-001 2.625814e-001
-2.510534e-002 3.263488e-002 5.610835e-003 7.359956e-001 -6.282287e-001 2.522683e-001
-2.174542e-002 2.888791e-002 3.302959e-003 0.000000e+000 0.000000e+000 0.000000e+000
-1.920233e-002 2.611803e-002 3.630817e-003 -2.716018e-001 8.746041e-001 4.016219e-001
-1.909220e-002 2.599763e-002 3.630816e-003 -4.229409e-001 8.809091e-001 2.124152e-001
-1.736397e-002 2.424587e-002 7.948617e-003 0.000000e+000 0.000000e+000 0.000000e+000
-1.586721e-002 2.241969e-002 1.997393e-003 -2.073453e-001 -3.846074e-001 8.994915e-001
-1.575759e-002 2.229984e-002 1.997392e-003 -1.755542e-001 -2.186008e-001 9.598929e-001
-1.564797e-002 2.218000e-002 1.997391e-003 -1.595804e-001 -1.364976e-001 9.777027e-001
-1.553836e-002 2.206016e-002 1.997390e-003 -1.460371e-001 -9.540189e-002 9.846683e-001
-1.542874e-002 2.194031e-002 1.997389e-003 -1.014155e-002 -1.024005e-001 9.946916e-001
-1.531912e-002 2.182047e-002 1.997388e-003 -2.597360e-003 -2.384548e-003 9.999938e-001
-1.520950e-002 2.170063e-002 1.997387e-003 -2.597380e-003 -2.384572e-003 9.999938e-001
-1.509988e-002 2.158078e-002 1.997386e-003 -1.218081e-001 9.668933e-001 2.242324e-001
-1.499027e-002 2.146094e-002 1.997385e-003 5.750982e-002 9.743468e-001 2.175798e-001
-1.488065e-002 2.134109e-002 1.997384e-003 3.772691e-001 9.118029e-001 1.621217e-001
-1.475436e-002 2.121341e-002 2.322881e-003 9.450008e-001 3.004287e-001 1.292908e-001
-1.467815e-002 2.110935e-002 1.672480e-003 9.872620e-001 -4.229267e-002 1.533792e-001
-1.456863e-002 2.098961e-002 1.672479e-003 9.550846e-001 -1.696223e-001 2.429852e-001
-1.447602e-002 2.087802e-002 1.348172e-003 8.968531e-001 -2.397935e-001 3.716901e-001
-1.436661e-002 2.075839e-002 1.348171e-003 -7.693810e-001 -6.354575e-001 6.516599e-002
-1.427426e-002 2.064711e-002 1.024461e-003 -4.968018e-003 9.999594e-001 7.514857e-003
-7.890741e-003 1.388889e-002 7.948525e-003 6.064660e-001 -7.777935e-001 1.650339e-001
-6.999143e-003 1.291412e-002 7.948516e-003 0.000000e+000 0.000000e+000 0.000000e+000
-3.482191e-003 8.920915e-003 3.302783e-003 1.291428e-001 -7.378565e-001 6.624877e-001
2.153248e-003 2.875835e-003 6.942785e-003 9.889397e-001 1.316729e-001 6.826785e-002
2.441172e-003 2.582411e-003 7.612585e-003 9.829102e-001 1.755099e-001 5.553285e-002
2.519563e-003 2.486018e-003 7.277370e-003 9.959986e-001 7.985073e-002 4.013243e-002
2.564872e-003 2.415160e-003 6.608789e-003 9.953619e-001 8.335449e-002 4.802855e-002
2.610014e-003 2.344565e-003 5.942711e-003 9.988738e-001 2.831296e-002 3.807366e-002
2.654987e-003 2.274233e-003 5.279078e-003 9.994176e-001 -5.133397e-003 3.373607e-002
2.699796e-003 2.204156e-003 4.617858e-003 9.993746e-001 3.074043e-003 3.522602e-002
2.744441e-003 2.134337e-003 3.959083e-003 9.993871e-001 -1.725432e-002 3.045725e-002
2.821760e-003 2.039331e-003 3.630604e-003 9.997463e-001 2.548692e-003 2.238243e-002
4.314407e-003 4.600070e-004 5.279062e-003 0.000000e+000 0.000000e+000 0.000000e+000
4.815968e-003 -2.033677e-004 1.672292e-003 1.998137e-001 -9.772919e-001 7.053374e-002
5.035003e-003 -4.428360e-004 1.672290e-003 6.332099e-002 8.230385e-001 5.644448e-001
5.179363e-003 -5.903019e-004 1.997190e-003 -1.787393e-001 8.405948e-001 5.113245e-001
-2.538503e-002 3.324893e-002 7.613437e-003 8.043552e-001 -5.348987e-001 2.586428e-001
-2.528085e-002 3.312412e-002 7.278221e-003 7.517340e-001 -5.998262e-001 2.740521e-001
-1.898468e-002 2.611114e-002 3.303508e-003 8.563392e-001 3.679147e-002 5.151014e-001
-1.563775e-002 2.240946e-002 1.997965e-003 -1.650014e-001 -2.178867e-001 9.619251e-001
-1.552813e-002 2.228962e-002 1.997964e-003 -7.204886e-002 -1.661159e-001 9.834706e-001
-1.541851e-002 2.216977e-002 1.997963e-003 9.470450e-002 -1.183082e-001 9.884504e-001
-1.530890e-002 2.204993e-002 1.997962e-003 1.015157e-001 -8.040708e-002 9.915792e-001
-1.519928e-002 2.193009e-002 1.997961e-003 5.273895e-002 6.724858e-002 9.963414e-001
-1.508966e-002 2.181024e-002 1.997960e-003 2.445594e-002 7.848253e-002 9.966155e-001
-1.498004e-002 2.169040e-002 1.997959e-003 -1.127059e-002 9.425821e-001 3.337844e-001
-1.487043e-002 2.157056e-002 1.997958e-003 2.683601e-001 9.132974e-001 3.063833e-001
-1.476081e-002 2.145071e-002 1.997957e-003 8.065095e-001 5.341156e-001 2.535014e-001
-1.465119e-002 2.133087e-002 1.997956e-003 9.770899e-001 4.668841e-003 2.127755e-001
-1.455842e-002 2.121886e-002 1.673052e-003 9.605828e-001 -1.783282e-001 2.132598e-001
-1.444890e-002 2.109913e-002 1.673051e-003 8.728235e-001 -2.745840e-001 4.034634e-001
-1.435640e-002 2.098744e-002 1.348744e-003 -9.717869e-001 -2.145033e-001 9.807482e-002
-7.768895e-003 1.400034e-002 7.949107e-003 -7.497051e-001 6.400132e-001 1.683011e-001
-4.184878e-003 9.909383e-003 2.649418e-003 -1.553986e-001 8.346001e-001 5.284827e-001
-3.554952e-003 9.252664e-003 3.631242e-003 8.588311e-003 -7.638193e-001 6.453730e-001
-3.471928e-003 9.151218e-003 3.303358e-003 3.067765e-002 -7.927455e-001 6.087803e-001
-3.361908e-003 9.030934e-003 3.303357e-003 1.001013e-001 -7.897126e-001 6.052551e-001
2.150132e-003 3.155974e-003 7.949011e-003 9.280389e-001 -3.506415e-001 1.256756e-001
2.196212e-003 3.083742e-003 7.277955e-003 9.344034e-001 -3.345822e-001 1.222499e-001
2.274756e-003 2.986974e-003 6.943366e-003 9.965867e-001 2.383146e-002 7.903760e-002
2.320474e-003 2.915259e-003 6.276035e-003 9.840845e-001 1.603709e-001 7.654297e-002
2.333422e-003 2.868654e-003 5.279660e-003 9.828264e-001 1.717639e-001 6.745010e-002
2.411407e-003 2.772617e-003 4.948736e-003 9.900074e-001 1.300911e-001 5.442143e-002
2.456623e-003 2.701689e-003 4.288767e-003 9.960361e-001 7.779922e-002 4.312128e-002
2.501672e-003 2.631023e-003 3.631183e-003 9.997445e-001 1.816675e-005 2.260623e-002
2.546556e-003 2.560616e-003 2.976043e-003 9.993076e-001 3.353672e-002 1.611501e-002
2.591278e-003 2.490463e-003 2.323287e-003 9.942843e-001 1.058824e-001 1.369654e-002
2.635835e-003 2.420569e-003 1.672886e-003 9.917831e-001 1.269227e-001 1.603005e-002
3.608437e-003 1.528875e-003 6.943353e-003 -6.699342e-001 7.317783e-001 1.252549e-001
4.435354e-003 5.706337e-004 5.279640e-003 0.000000e+000 0.000000e+000 0.000000e+000
5.154736e-003 -3.333193e-004 1.672862e-003 -3.611938e-003 9.959186e-001 9.018411e-002
5.264254e-003 -4.530534e-004 1.672861e-003 -2.425864e-001 9.644080e-001 1.052098e-001
-1.539220e-002 2.239247e-002 2.324035e-003 -7.888290e-002 -5.787756e-001 8.116627e-001
-1.529867e-002 2.227939e-002 1.998536e-003 2.556335e-001 -1.401896e-001 9.565555e-001
-1.518905e-002 2.215955e-002 1.998534e-003 2.161887e-001 -3.702625e-002 9.756492e-001
-1.507943e-002 2.203970e-002 1.998533e-003 8.324495e-002 1.457684e-001 9.858103e-001
-1.496982e-002 2.191986e-002 1.998532e-003 2.585190e-002 1.480808e-001 9.886373e-001
-1.486020e-002 2.180002e-002 1.998531e-003 7.834529e-002 1.970879e-001 9.772504e-001
-1.475058e-002 2.168017e-002 1.998530e-003 2.941354e-001 1.004258e-001 9.504731e-001
-1.464096e-002 2.156033e-002 1.998529e-003 6.193116e-001 -1.421744e-001 7.721655e-001
-1.453135e-002 2.144048e-002 1.998528e-003 7.263277e-001 -2.215987e-001 6.506475e-001
-1.443869e-002 2.132838e-002 1.673624e-003 7.797099e-001 -3.006651e-001 5.492294e-001
-1.355389e-002 2.056967e-002 7.949746e-003 -1.507095e-001 -9.884088e-001 1.829557e-002
-1.332915e-002 2.025730e-002 5.944026e-003 9.134681e-001 -2.912820e-001 2.841316e-001
-1.323658e-002 2.014504e-002 5.611879e-003 9.088871e-001 -3.226204e-001 2.642732e-001
-7.647049e-003 1.411179e-002 7.949689e-003 -7.807284e-001 6.225373e-001 5.394970e-002
-7.559227e-003 1.400461e-002 7.613848e-003 -5.774134e-001 8.157764e-001 3.320623e-002
-6.755451e-003 1.313701e-002 7.949681e-003 0.000000e+000 0.000000e+000 0.000000e+000
-4.064817e-003 1.001920e-002 2.649991e-003 -4.273609e-001 7.528530e-001 5.005747e-001
-3.954997e-003 9.899136e-003 2.649990e-003 -4.415900e-001 6.821215e-001 5.828452e-001
-3.324438e-003 9.242390e-003 3.631816e-003 -2.933954e-001 -8.400136e-001 4.563948e-001
-3.214319e-003 9.121999e-003 3.631815e-003 -7.570577e-001 -5.435063e-001 3.625804e-001
-3.131606e-003 9.020669e-003 3.303931e-003 -9.026273e-001 -2.542934e-001 3.472733e-001
2.239252e-003 3.292038e-003 7.613753e-003 9.413939e-001 -3.249335e-001 9.053114e-002
2.285121e-003 3.219623e-003 6.943947e-003 9.551312e-001 -2.796464e-001 9.758157e-002
2.363510e-003 3.122820e-003 6.609953e-003 9.893026e-001 -1.038006e-001 1.024983e-001
2.409026e-003 3.050915e-003 5.943873e-003 9.955811e-001 -3.705952e-003 9.383283e-002
2.454369e-003 2.979281e-003 5.280238e-003 9.962697e-001 4.681785e-003 8.616710e-002
2.532243e-003 2.883142e-003 4.949314e-003 9.973531e-001 1.009734e-002 7.200637e-002
2.577237e-003 2.812011e-003 4.289344e-003 9.965342e-001 -6.877949e-002 4.678657e-002
2.622064e-003 2.741143e-003 3.631759e-003 9.901710e-001 -1.382843e-001 2.094981e-002
2.732185e-003 2.620749e-003 3.631758e-003 9.945617e-001 -1.035100e-001 1.152179e-002
2.755569e-003 2.530086e-003 1.673458e-003 9.609657e-001 2.756425e-001 2.379364e-002
3.729945e-003 1.640014e-003 6.943933e-003 -6.699345e-001 7.317780e-001 1.252549e-001
5.239572e-003 -1.964292e-004 1.349127e-003 -8.776303e-002 9.934918e-001 7.260650e-002
5.383988e-003 -3.435361e-004 1.673433e-003 -3.996067e-001 9.117802e-001 9.471678e-002
-1.506921e-002 2.226916e-002 1.999107e-003 2.437140e-001 -9.508830e-002 9.651744e-001
-1.497606e-002 2.215630e-002 1.674203e-003 1.988909e-001 4.056383e-001 8.921323e-001
-1.484997e-002 2.202948e-002 1.999105e-003 1.888689e-001 2.486651e-001 9.499969e-001
-1.474036e-002 2.190963e-002 1.999104e-003 2.768262e-001 2.950397e-001 9.145047e-001
-1.463074e-002 2.178979e-002 1.999103e-003 4.869308e-001 6.425161e-002 8.710741e-001
-1.452112e-002 2.166994e-002 1.999102e-003 6.840106e-001 -5.271051e-002 7.275652e-001
-1.442847e-002 2.155763e-002 1.674198e-003 7.211362e-001 -1.559185e-001 6.750200e-001
-1.431895e-002 2.143790e-002 1.674197e-003 7.544189e-001 -2.528362e-001 6.057441e-001
-1.354349e-002 2.080297e-002 7.950330e-003 -3.181102e-001 9.474884e-001 3.273769e-002
-1.348641e-002 2.070645e-002 6.944682e-003 8.154484e-001 -5.554313e-001 1.629109e-001
-1.339343e-002 2.059347e-002 6.610687e-003 8.888298e-001 -4.167218e-001 1.905901e-001
-1.330062e-002 2.048070e-002 6.277348e-003 9.201174e-001 -3.136513e-001 2.345352e-001
-1.320798e-002 2.036813e-002 5.944605e-003 9.179518e-001 -2.756783e-001 2.852472e-001
-1.311552e-002 2.025577e-002 5.612458e-003 9.246354e-001 -2.536806e-001 2.840699e-001
-7.975756e-003 1.465908e-002 6.277296e-003 6.222292e-001 -6.822801e-001 3.838291e-001
-7.888035e-003 1.455189e-002 5.944553e-003 -9.909243e-001 1.795409e-002 1.332169e-001
-7.525203e-003 1.422324e-002 7.950271e-003 -9.865109e-001 -1.625343e-001 1.946159e-002
-3.971318e-003 1.014700e-002 2.324499e-003 -4.999096e-001 7.688650e-001 3.986691e-001
-3.834936e-003 1.000895e-002 2.650564e-003 -4.409660e-001 6.987721e-001 5.632641e-001
-3.286900e-003 9.454235e-003 3.960872e-003 -3.518332e-001 -8.195612e-001 4.522531e-001
-3.204045e-003 9.352510e-003 3.632391e-003 -2.956888e-001 -8.539470e-001 4.281853e-001
-3.093927e-003 9.232119e-003 3.632390e-003 -7.566559e-001 -5.310271e-001 3.814211e-001
2.282375e-003 3.500717e-003 7.950176e-003 9.141805e-001 -4.019706e-001 5.190070e-002
2.328207e-003 3.427849e-003 7.279119e-003 9.421610e-001 -3.269056e-001 7.392886e-002
2.406629e-003 3.330763e-003 6.944528e-003 9.535678e-001 -2.880527e-001 8.794398e-002
2.419365e-003 3.282918e-003 5.944454e-003 9.733679e-001 -1.989053e-001 1.139804e-001
2.464691e-003 3.210855e-003 5.280817e-003 9.712241e-001 -2.066107e-001 1.184731e-001
2.542551e-003 3.114507e-003 4.949892e-003 9.643156e-001 -2.333701e-001 1.250352e-001
2.653079e-003 2.993667e-003 4.949891e-003 9.548069e-001 -2.691218e-001 1.261631e-001
2.697851e-003 2.922334e-003 4.289920e-003 9.530128e-001 -2.791116e-001 1.177426e-001
2.742457e-003 2.851262e-003 3.632334e-003 9.262038e-001 -3.652801e-001 9.336481e-002
3.446413e-003 2.059413e-003 2.977185e-003 -6.699346e-001 7.317778e-001 1.252549e-001
5.680215e-003 -3.716785e-004 3.304422e-003 -4.680222e-001 8.781493e-001 9.904075e-002
5.542892e-003 -2.988242e-004 1.025986e-003 -1.718148e-001 9.850314e-001 1.388699e-002
-1.888270e-002 2.669031e-002 2.325218e-003 0.000000e+000 0.000000e+000 0.000000e+000
-1.494937e-002 2.237878e-002 1.999680e-003 3.266647e-001 -3.599018e-001 8.739341e-001
-1.485632e-002 2.226582e-002 1.674775e-003 1.345981e-001 6.784397e-001 7.222208e-001
-1.473013e-002 2.213909e-002 1.999678e-003 2.375165e-001 3.408174e-001 9.096315e-001
-1.462051e-002 2.201925e-002 1.999677e-003 3.525331e-001 3.278603e-001 8.764862e-001
-1.451090e-002 2.189941e-002 1.999676e-003 5.500863e-001 -5.643168e-004 8.351077e-001
-1.441825e-002 2.178688e-002 1.674771e-003 6.886942e-001 -1.212365e-001 7.148440e-001
-1.430873e-002 2.166715e-002 1.674770e-003 7.057777e-001 -1.717465e-001 6.872997e-001
-1.421636e-002 2.155494e-002 1.350461e-003 -3.140378e-001 9.482936e-001 4.603763e-002
-1.410694e-002 2.143531e-002 1.350460e-003 -4.558649e-001 8.881118e-001 5.869147e-002
-1.342164e-002 2.091441e-002 7.950912e-003 9.584324e-001 -2.518652e-001 1.340571e-001
-1.336490e-002 2.081759e-002 6.945263e-003 8.412472e-001 -5.159261e-001 1.616275e-001
-1.329027e-002 2.071292e-002 6.277928e-003 9.118456e-001 -3.668264e-001 1.843257e-001
-1.319764e-002 2.060013e-002 5.945185e-003 9.273641e-001 -2.936283e-001 2.319014e-001
-1.310519e-002 2.048756e-002 5.613037e-003 9.197106e-001 -2.675815e-001 2.872849e-001
-1.301290e-002 2.037520e-002 5.281546e-003 9.159595e-001 -2.799411e-001 2.874912e-001
-1.293926e-002 2.027182e-002 4.620322e-003 8.588213e-001 -4.571340e-001 2.312024e-001
-1.242182e-002 1.975193e-002 5.945177e-003 4.070597e-001 8.664205e-001 2.891676e-001
-1.229186e-002 1.962136e-002 6.277919e-003 5.510858e-001 7.826554e-001 2.894046e-001
-1.218092e-002 1.950008e-002 6.277917e-003 6.318089e-001 7.209383e-001 2.847199e-001
-7.854473e-003 1.477001e-002 6.277876e-003 6.222268e-001 -6.822822e-001 3.838291e-001
-7.651300e-003 1.437743e-002 1.350398e-003 7.948517e-001 6.065954e-001 1.590238e-002
-7.565074e-003 1.427196e-002 1.026685e-003 7.549876e-001 6.552185e-001 2.612265e-002
-7.455755e-003 1.415244e-002 1.026684e-003 -7.376854e-001 -6.747410e-001 2.333949e-002
-7.346437e-003 1.403293e-002 1.026683e-003 0.000000e+000 0.000000e+000 0.000000e+000
-6.045722e-003 1.265578e-002 2.325094e-003 3.651599e-001 -6.733065e-001 6.428970e-001
-3.824692e-003 1.023884e-002 2.651139e-003 7.988377e-001 -6.003432e-001 3.803059e-002
-3.714872e-003 1.011877e-002 2.651138e-003 -5.493219e-001 6.245160e-001 5.551803e-001
-3.028647e-003 9.425242e-003 4.290553e-003 3.187943e-001 -9.248887e-001 2.072464e-001
-2.918325e-003 9.304628e-003 4.290552e-003 -9.129974e-001 -1.297324e-001 3.867884e-001
-2.613876e-003 9.006056e-003 5.281445e-003 -8.840798e-001 3.090818e-001 3.505302e-001
-2.503248e-003 8.885107e-003 5.281444e-003 -7.167015e-001 6.452452e-001 2.645706e-001
-1.748444e-003 8.140613e-003 7.614957e-003 0.000000e+000 0.000000e+000 0.000000e+000
2.404222e-003 3.612167e-003 7.950759e-003 9.236997e-001 -3.813469e-001 3.678919e-002
2.384227e-003 3.587685e-003 6.611116e-003 9.498832e-001 -3.054955e-001 6.629111e-002
2.429705e-003 3.514922e-003 5.945034e-003 9.617010e-001 -2.580018e-001 9.255411e-002
2.507741e-003 3.418115e-003 5.612887e-003 9.755678e-001 -1.802579e-001 1.255968e-001
2.552862e-003 3.345869e-003 4.950471e-003 9.727377e-001 -1.998074e-001 1.177213e-001
2.663388e-003 3.225032e-003 4.950469e-003 9.695060e-001 -2.158700e-001 1.160095e-001
2.642608e-003 3.202170e-003 3.632911e-003 9.885581e-001 -1.042945e-001 1.089748e-001
2.752729e-003 3.081777e-003 3.632910e-003 9.911574e-001 -3.037342e-002 1.291682e-001
2.862850e-003 2.961383e-003 3.632909e-003 9.863707e-001 -8.994247e-002 1.377791e-001
5.800499e-003 -2.616590e-004 3.304997e-003 -5.002311e-001 8.605845e-001 9.572458e-002
-1.619100e-002 2.394257e-002 1.027341e-003 -9.240728e-001 3.757242e-001 7.014853e-002
-1.461029e-002 2.224871e-002 2.000250e-003 3.416269e-001 6.628171e-001 6.663066e-001
-1.451755e-002 2.213587e-002 1.675345e-003 4.315779e-001 5.839847e-001 6.875336e-001
-1.440804e-002 2.201613e-002 1.675344e-003 6.322086e-001 -1.881017e-002 7.745699e-001
-1.429852e-002 2.189640e-002 1.675343e-003 6.808991e-001 -1.590101e-001 7.149071e-001
-1.418900e-002 2.177667e-002 1.675342e-003 6.216391e-001 -2.674181e-001 7.362421e-001
-1.409674e-002 2.166435e-002 1.351033e-003 -2.871743e-001 9.559365e-001 6.096216e-002
-1.398732e-002 2.154473e-002 1.351032e-003 -5.579162e-001 8.246753e-001 9.295338e-002
-1.331808e-002 2.103400e-002 7.615651e-003 9.695300e-001 -2.106102e-001 1.251198e-001
-1.322508e-002 2.092051e-002 7.280434e-003 9.226009e-001 -3.567833e-001 1.466741e-001
-1.316899e-002 2.082385e-002 6.278508e-003 3.363217e-001 -9.258940e-001 1.720699e-001
-1.309486e-002 2.071935e-002 5.613617e-003 4.981274e-001 -8.442315e-001 1.978437e-001
-1.300258e-002 2.060677e-002 5.282125e-003 5.133938e-001 -8.372912e-001 1.880697e-001
-1.289195e-002 2.048583e-002 5.282124e-003 5.144224e-001 -8.457389e-001 1.417576e-001
-1.281854e-002 2.038224e-002 4.620899e-003 5.068544e-001 -8.528484e-001 1.254918e-001
-1.230065e-002 1.986276e-002 5.945756e-003 5.531832e-001 7.743678e-001 3.071527e-001
-1.217058e-002 1.973230e-002 6.278498e-003 6.674024e-001 7.341737e-001 1.247518e-001
-1.207898e-002 1.962042e-002 5.945754e-003 5.626812e-001 7.837616e-001 2.628833e-001
-6.414603e-003 1.348651e-002 7.615585e-003 0.000000e+000 0.000000e+000 0.000000e+000
-6.315845e-003 1.321499e-002 2.978430e-003 2.634392e-001 -8.101610e-001 5.236782e-001
-6.230447e-003 1.311010e-002 2.651737e-003 -1.477942e-001 -7.534629e-001 6.406642e-001
-6.120629e-003 1.299004e-002 2.651736e-003 -1.662241e-002 -7.138959e-001 7.000545e-001
-6.010810e-003 1.286997e-002 2.651735e-003 -4.045056e-001 -6.241204e-001 6.684676e-001
-5.925769e-003 1.276550e-002 2.325667e-003 4.053559e-001 -6.709853e-001 6.208586e-001
-2.990769e-003 9.637645e-003 4.620804e-003 8.752866e-001 -4.834804e-001 1.095407e-002
-2.908033e-003 9.535563e-003 4.291130e-003 8.369146e-001 -5.469158e-001 2.137876e-002
-2.797711e-003 9.414949e-003 4.291128e-003 -9.180990e-001 7.085086e-002 3.899672e-001
-2.521027e-003 9.135731e-003 4.951098e-003 -7.704567e-001 4.815529e-001 4.177360e-001
-2.382300e-003 8.995734e-003 5.282022e-003 -9.217852e-002 8.602406e-001 5.014871e-001
-1.486122e-003 8.110101e-003 7.951380e-003 0.000000e+000 0.000000e+000 0.000000e+000
2.414618e-003 3.845464e-003 7.951343e-003 9.506891e-001 -3.084389e-001 3.249146e-002
2.526069e-003 3.723616e-003 7.951342e-003 9.559711e-001 -2.904541e-001 4.189975e-002
2.472802e-003 3.722846e-003 6.278357e-003 9.429829e-001 -3.240390e-001 7.603918e-002
2.518071e-003 3.649903e-003 5.613466e-003 9.509189e-001 -2.948025e-001 9.404596e-002
2.595958e-003 3.553058e-003 5.281974e-003 9.622947e-001 -2.392275e-001 1.294568e-001
2.673698e-003 3.456394e-003 4.951048e-003 9.623197e-001 -2.494913e-001 1.081433e-001
2.652880e-003 3.432684e-003 3.633488e-003 9.784837e-001 -1.871282e-001 8.690570e-002
2.763001e-003 3.312290e-003 3.633487e-003 9.924939e-001 -6.580754e-002 1.030782e-001
2.840234e-003 3.216287e-003 3.305601e-003 9.925355e-001 -1.939883e-002 1.204038e-001
5.920780e-003 -1.516407e-004 3.305571e-003 -6.737004e-001 7.362154e-001 6.414547e-002
-1.959285e-002 2.809052e-002 6.279150e-003 9.463104e-001 -8.557182e-002 3.117276e-001
-1.950687e-002 2.797262e-002 5.614258e-003 6.747347e-001 -5.756584e-001 4.618988e-001
-1.939614e-002 2.785156e-002 5.614257e-003 8.714646e-001 -2.256362e-001 4.354742e-001
-1.607149e-002 2.405189e-002 1.027912e-003 -9.406344e-001 3.329078e-001 6.617688e-002
-1.438083e-002 2.223848e-002 2.000822e-003 -1.783738e-001 -8.596798e-001 4.786789e-001
-1.428830e-002 2.212565e-002 1.675916e-003 6.536971e-001 -1.605391e-002 7.565860e-001
-1.417879e-002 2.200592e-002 1.675915e-003 6.248450e-001 -2.827126e-001 7.277653e-001
-1.406927e-002 2.188618e-002 1.675914e-003 4.598386e-001 -4.411007e-001 7.707001e-001
-1.397711e-002 2.177377e-002 1.351604e-003 -1.737677e-002 9.991268e-001 3.799571e-002
-1.386769e-002 2.165415e-002 1.351603e-003 -6.248360e-001 7.737833e-001 1.041127e-001
-1.341904e-002 2.138882e-002 7.616235e-003 -8.914074e-001 4.379732e-001 1.165008e-001
-8.385611e-003 1.589790e-002 7.952031e-003 8.179533e-001 5.751879e-001 1.054547e-002
-8.320004e-003 1.580205e-002 7.280969e-003 8.361346e-001 5.484913e-001 6.018160e-003
-8.254639e-003 1.570656e-002 6.612381e-003 -8.844962e-001 -4.665256e-001 4.523002e-003
-8.189514e-003 1.561141e-002 5.946297e-003 -9.328229e-001 -3.598908e-001 1.788667e-002
-8.124633e-003 1.551662e-002 5.282657e-003 2.695619e-001 -9.492683e-001 1.619444e-001
-6.292869e-003 1.359786e-002 7.616166e-003 0.000000e+000 0.000000e+000 0.000000e+000
-6.195673e-003 1.332491e-002 2.979005e-003 2.517827e-001 -7.940783e-001 5.532135e-001
-6.110385e-003 1.321992e-002 2.652311e-003 1.234210e-002 -7.089415e-001 7.051592e-001
-6.000567e-003 1.309986e-002 2.652310e-003 7.214944e-002 -6.922207e-001 7.180703e-001
-5.890748e-003 1.297979e-002 2.652308e-003 -2.530458e-001 -6.277156e-001 7.361664e-001
-4.155819e-003 1.102462e-002 1.027797e-003 -9.262273e-001 -3.676711e-001 8.319149e-002
-3.780324e-003 1.073142e-002 4.291716e-003 2.924249e-001 9.557300e-001 3.267765e-002
-3.643014e-003 1.059315e-002 4.621388e-003 -9.696845e-001 -2.343690e-001 6.915949e-002
-2.841716e-003 9.776682e-003 6.278989e-003 -7.413196e-001 6.709436e-001 1.673033e-002
-2.870044e-003 9.748070e-003 4.621380e-003 -9.876207e-001 1.285634e-001 8.987142e-002
-2.787419e-003 9.645886e-003 4.291706e-003 -9.777145e-001 2.020515e-001 5.700358e-002
-2.677097e-003 9.525272e-003 4.291705e-003 -9.773164e-001 -1.291389e-001 1.678567e-001
-3.709900e-004 7.087447e-003 6.612305e-003 8.774366e-001 4.745851e-001 6.981459e-002
2.536464e-003 3.956913e-003 7.951925e-003 9.873325e-001 -1.531801e-001 4.135676e-002
2.548872e-003 3.907199e-003 6.946272e-003 9.738668e-001 -2.190681e-001 5.993896e-002
2.528401e-003 3.881691e-003 5.614046e-003 9.676371e-001 -2.404569e-001 7.654412e-002
2.606277e-003 3.784635e-003 5.282553e-003 9.750586e-001 -1.994060e-001 9.745789e-002
2.716905e-003 3.663686e-003 5.282552e-003 9.751305e-001 -1.770808e-001 1.332774e-001
2.794534e-003 3.566919e-003 4.951626e-003 9.599104e-001 -2.621896e-001 9.913978e-002
2.773273e-003 3.542804e-003 3.634063e-003 9.643084e-001 -2.503228e-001 8.630049e-002
-2.259698e-002 3.159408e-002 5.614868e-003 -2.019648e-001 8.152201e-001 5.427949e-001
-2.248625e-002 3.147302e-002 5.614867e-003 -3.178445e-001 6.489819e-001 6.912289e-001
-2.236571e-002 3.135340e-002 5.947014e-003 4.804134e-001 6.252976e-001 6.149844e-001
-2.225487e-002 3.123222e-002 5.947013e-003 7.178138e-003 6.537680e-001 7.566610e-001
-2.214404e-002 3.111105e-002 5.947012e-003 6.660929e-001 3.819184e-001 6.406704e-001
-1.948407e-002 2.820293e-002 5.946986e-003 9.407774e-001 -9.419741e-002 3.256758e-001
-1.938581e-002 2.808334e-002 5.614837e-003 9.238764e-001 -2.508346e-002 3.818681e-001
-1.927508e-002 2.796229e-002 5.614836e-003 8.678179e-001 -2.124001e-001 4.491973e-001
-1.917711e-002 2.784303e-002 5.283343e-003 6.632117e-001 -3.987473e-001 6.333647e-001
-1.604584e-002 2.427569e-002 1.352197e-003 -9.609226e-001 2.668591e-001 7.357945e-002
-1.566774e-002 2.406721e-002 6.947030e-003 -9.478946e-001 3.103079e-001 7.214510e-002
-1.396691e-002 2.200281e-002 1.352177e-003 -5.447040e-001 -8.362013e-001 6.375720e-002
-1.385749e-002 2.188319e-002 1.352176e-003 -4.235186e-001 -9.056365e-001 2.132105e-002
-1.373050e-002 2.175623e-002 1.676484e-003 -1.886774e-001 9.804747e-001 5.540885e-002
-1.329730e-002 2.150016e-002 7.616817e-003 -7.971314e-001 5.936758e-001 1.101386e-001
-1.322266e-002 2.139403e-002 6.947006e-003 -9.174705e-001 3.784634e-001 1.225289e-001
-1.264811e-002 2.077813e-002 7.281593e-003 -3.152775e-001 -9.328733e-001 1.742054e-001
-8.263765e-003 1.600935e-002 7.952613e-003 -9.220726e-001 -3.870154e-001 1.029128e-003
-8.198383e-003 1.591329e-002 7.281550e-003 8.807466e-001 4.735530e-001 5.741872e-003
-8.110214e-003 1.580464e-002 6.946957e-003 8.921142e-001 4.518094e-001 6.731767e-004
-8.045297e-003 1.570923e-002 6.279620e-003 -8.957608e-001 -4.445283e-001 2.688800e-003
-5.965583e-003 1.331465e-002 2.979578e-003 8.459631e-002 -7.056511e-001 7.034913e-001
-3.607908e-003 1.085788e-002 6.279577e-003 -5.046709e-001 8.620897e-001 4.591917e-002
-2.859741e-003 9.979216e-003 4.621958e-003 -9.676768e-001 2.314805e-001 1.000927e-001
-2.777127e-003 9.876821e-003 4.292283e-003 -9.968376e-001 2.010040e-002 7.688236e-002
-5.317503e-004 7.482568e-003 5.946803e-003 8.774363e-001 4.745855e-001 6.981450e-002
-4.509815e-004 7.382100e-003 5.614654e-003 8.774366e-001 4.745850e-001 6.981423e-002
2.480959e-003 4.237682e-003 7.281447e-003 9.915060e-001 -9.652562e-002 8.717065e-002
2.559240e-003 4.139845e-003 6.946854e-003 9.833528e-001 -1.685948e-001 6.777220e-002
2.637376e-003 4.042189e-003 6.612857e-003 9.734238e-001 -2.167089e-001 7.405036e-002
2.649460e-003 3.992420e-003 5.614624e-003 9.733153e-001 -2.110695e-001 9.003909e-002
2.727224e-003 3.895262e-003 5.283131e-003 9.795572e-001 -1.717519e-001 1.047334e-001
2.804845e-003 3.798281e-003 4.952204e-003 9.803176e-001 -1.712024e-001 9.832193e-002
2.783545e-003 3.773317e-003 3.634640e-003 9.590007e-001 -2.736849e-001 7.358116e-002
2.893666e-003 3.652923e-003 3.634638e-003 9.627049e-001 -2.581914e-001 8.084849e-002
4.558930e-003 1.760592e-003 1.676307e-003 0.000000e+000 0.000000e+000 0.000000e+000
5.325552e-003 9.224528e-004 1.676300e-003 0.000000e+000 0.000000e+000 0.000000e+000
-2.246620e-002 3.170657e-002 5.947595e-003 1.775386e-001 6.665691e-001 7.239929e-001
-2.236519e-002 3.158375e-002 5.615445e-003 -1.428050e-001 6.073608e-001 7.814854e-001
-2.224453e-002 3.146423e-002 5.947593e-003 7.705478e-002 5.679153e-001 8.194722e-001
-1.317557e-002 2.161151e-002 7.617399e-003 -2.553093e-001 9.654105e-001 5.291249e-002
-1.308271e-002 2.149748e-002 7.282179e-003 1.936130e-002 9.996549e-001 1.775020e-002
-1.252649e-002 2.088937e-002 7.282174e-003 -4.694739e-001 5.095010e-001 7.211124e-001
-1.221639e-002 2.046347e-002 4.952928e-003 0.000000e+000 0.000000e+000 0.000000e+000
-8.615714e-003 1.644113e-002 2.653485e-003 8.653548e-001 5.010412e-001 1.090109e-002
-8.550647e-003 1.634569e-002 2.001913e-003 -9.121285e-001 -4.099040e-001 4.986090e-004
-8.485815e-003 1.625060e-002 1.352697e-003 9.079849e-001 4.190027e-001 3.090059e-004
-5.845410e-003 1.342457e-002 2.980152e-003 -7.700704e-003 -7.296019e-001 6.838287e-001
-3.427198e-003 1.078076e-002 2.980129e-003 5.024523e-001 8.325359e-001 2.332934e-001
-2.599150e-003 9.998550e-003 6.280148e-003 -6.931001e-001 7.199422e-001 3.599401e-002
-2.459983e-003 9.858834e-003 6.613487e-003 -4.756263e-001 -8.727807e-001 1.096969e-001
2.524264e-003 4.447048e-003 7.617247e-003 9.792470e-001 -1.817417e-001 8.969478e-002
2.569609e-003 4.372492e-003 6.947435e-003 9.788083e-001 -1.792527e-001 9.900853e-002
2.614782e-003 4.298214e-003 6.280098e-003 9.632934e-001 -2.548731e-001 8.429394e-002
2.659788e-003 4.224212e-003 5.615204e-003 9.586293e-001 -2.660085e-001 1.013377e-001
2.704630e-003 4.150479e-003 4.952784e-003 9.691567e-001 -2.251402e-001 1.002356e-001
2.782202e-003 4.053352e-003 4.622482e-003 9.763446e-001 -1.971891e-001 8.869940e-002
2.826695e-003 3.980138e-003 3.963698e-003 9.834324e-001 -1.639875e-001 7.725756e-002
2.871024e-003 3.907193e-003 3.307329e-003 9.790669e-001 -1.981197e-001 4.665330e-002
3.014058e-003 3.763043e-003 3.635214e-003 9.407768e-001 3.139775e-001 1.278951e-001
3.783203e-003 3.083190e-003 7.953079e-003 -4.213605e-002 9.906088e-001 1.300724e-001
5.649498e-003 9.555945e-004 5.615175e-003 -9.839053e-001 -1.575920e-001 8.423313e-002
-2.235486e-002 3.181554e-002 5.616025e-003 -1.233779e-001 5.674440e-001 8.141162e-001
-2.224413e-002 3.169448e-002 5.616024e-003 -1.027156e-001 5.629813e-001 8.200619e-001
-2.213340e-002 3.157342e-002 5.616023e-003 1.884701e-002 5.067113e-001 8.619097e-001
-1.314676e-002 2.183720e-002 7.953826e-003 -9.844621e-001 -1.363469e-001 1.106516e-001
-1.305384e-002 2.172286e-002 7.617981e-003 -8.533394e-002 9.959754e-001 2.740668e-002
-1.294249e-002 2.160112e-002 7.617980e-003 -8.432588e-002 -9.963870e-001 1.010108e-002
-1.284984e-002 2.148710e-002 7.282760e-003 1.154036e-001 -9.527031e-001 2.811383e-001
-1.273860e-002 2.136548e-002 7.282759e-003 9.770404e-002 -9.683015e-001 2.298830e-001
-8.495652e-003 1.655095e-002 2.654058e-003 -9.949878e-001 -9.497298e-002 3.129362e-002
-8.430804e-003 1.645531e-002 2.002486e-003 -9.916489e-001 -1.246045e-001 3.326110e-002
-8.366191e-003 1.636001e-002 1.353268e-003 8.305151e-001 5.569384e-001 8.017248e-003
-7.041135e-003 1.514923e-002 7.617922e-003 0.000000e+000 0.000000e+000 0.000000e+000
-3.472774e-003 1.109677e-002 3.635853e-003 9.438267e-001 -3.123175e-001 1.079297e-001
-3.389824e-003 1.099363e-002 3.307965e-003 8.635355e-001 4.885648e-001 1.249435e-001
-3.307026e-003 1.089068e-002 2.980703e-003 -5.385492e-001 -7.899626e-001 2.931276e-001
2.567654e-003 4.656799e-003 7.953675e-003 9.966171e-001 -4.819186e-002 6.657313e-002
2.612957e-003 4.581787e-003 7.282610e-003 9.926296e-001 -1.039983e-001 6.221584e-002
2.691115e-003 4.483631e-003 6.948016e-003 9.927146e-001 -9.596203e-002 7.286336e-002
2.703061e-003 4.432595e-003 5.947932e-003 9.871632e-001 -1.400421e-001 7.679191e-002
2.780847e-003 4.334941e-003 5.615782e-003 9.882578e-001 -1.255902e-001 8.702718e-002
2.792502e-003 4.284502e-003 4.623060e-003 9.959010e-001 -4.104938e-002 8.059818e-002
2.902927e-003 4.163776e-003 4.623059e-003 9.913917e-001 -1.156093e-001 6.145701e-002
2.947198e-003 4.090359e-003 3.964274e-003 9.972150e-001 -5.393364e-002 5.151218e-002
2.991305e-003 4.017211e-003 3.307903e-003 9.963061e-001 -7.990023e-002 3.146629e-002
2.903831e-003 4.038619e-003 1.353159e-003 6.476681e-001 7.577879e-001 7.926860e-002
3.288097e-003 3.680305e-003 2.980639e-003 -2.873976e-002 9.908643e-001 1.317652e-001
5.006499e-003 1.826472e-003 3.635771e-003 0.000000e+000 0.000000e+000 0.000000e+000
5.196663e-003 1.568903e-003 2.327857e-003 -6.582457e-001 7.184799e-001 2.247202e-001
-2.223380e-002 3.192627e-002 5.616603e-003 3.915960e-001 3.710103e-001 8.420237e-001
-2.212307e-002 3.180521e-002 5.616602e-003 3.806168e-001 3.651962e-001 8.495661e-001
-2.201234e-002 3.168415e-002 5.616602e-003 3.916605e-001 3.736630e-001 8.408198e-001
-1.421315e-002 2.303030e-002 2.328619e-003 -4.692058e-001 8.773010e-001 1.009398e-001
-1.283947e-002 2.171996e-002 7.283342e-003 1.289637e-001 -9.269527e-001 3.523168e-001
-1.274700e-002 2.160594e-002 6.948747e-003 8.433900e-002 -9.692186e-001 2.313056e-001
-1.261698e-002 2.147672e-002 7.283340e-003 2.031426e-001 -9.388239e-001 2.781056e-001
-1.252472e-002 2.136292e-002 6.948745e-003 9.811437e-001 -4.855852e-002 1.870806e-001
-3.379562e-003 1.122393e-002 3.308541e-003 7.891959e-001 -4.494502e-001 4.185264e-001
-3.296774e-003 1.112077e-002 2.981278e-003 8.742815e-001 -3.928944e-001 2.850715e-001
-3.186854e-003 1.100060e-002 2.981277e-003 -8.885006e-001 -4.345770e-001 1.473414e-001
-3.049504e-003 1.086309e-002 3.308538e-003 -3.261054e-001 4.966171e-001 8.043797e-001
-2.939484e-003 1.074280e-002 3.308536e-003 -3.958356e-001 -9.045385e-001 1.585068e-001
2.623333e-003 4.814651e-003 7.283192e-003 9.953554e-001 4.472744e-002 8.524760e-002
2.734577e-003 4.693029e-003 7.283191e-003 9.977745e-001 -1.517821e-002 6.492804e-002
2.713400e-003 4.664598e-003 5.948512e-003 9.972102e-001 -1.513029e-002 7.309486e-002
2.824232e-003 4.543426e-003 5.948511e-003 9.914878e-001 -1.161577e-001 5.881599e-002
2.868811e-003 4.469039e-003 5.284867e-003 9.954914e-001 -7.298318e-002 6.058380e-002
2.913227e-003 4.394926e-003 4.623637e-003 9.976948e-001 2.540994e-002 6.292437e-002
2.990535e-003 4.297663e-003 4.293960e-003 9.988694e-001 1.574797e-004 4.753812e-002
2.968596e-003 4.270914e-003 2.981218e-003 9.991288e-001 1.492890e-002 3.897122e-002
2.946814e-003 4.244362e-003 1.678043e-003 9.966354e-001 -8.171008e-002 6.432543e-003
3.408269e-003 3.790223e-003 2.981213e-003 -2.662065e-001 9.525062e-001 1.478712e-001
3.551666e-003 3.646097e-003 3.308474e-003 -6.759968e-001 7.217144e-001 1.488508e-001
5.316615e-003 1.678620e-003 2.328430e-003 -9.550786e-001 2.675732e-001 1.273947e-001
-2.200201e-002 3.191594e-002 5.617181e-003 -2.597300e-003 -2.384243e-003 9.999938e-001
-1.411047e-002 2.314610e-002 2.003689e-003 -6.376160e-001 7.487404e-001 1.812008e-001
-1.400085e-002 2.302626e-002 2.003687e-003 -6.874702e-001 7.070279e-001 1.658200e-001
-1.349380e-002 2.260097e-002 5.285604e-003 -6.601998e-001 7.206935e-001 2.115112e-001
-1.258768e-002 2.170208e-002 7.619142e-003 1.396412e-001 -9.386371e-001 3.153741e-001
-1.249536e-002 2.158796e-002 7.283921e-003 2.569004e-001 -9.216817e-001 2.906975e-001
-1.242227e-002 2.148176e-002 6.615328e-003 4.538912e-001 -8.616571e-001 2.270016e-001
-8.672536e-003 1.723934e-002 2.981906e-003 6.641286e-001 -7.269972e-001 1.743797e-001
-8.607304e-003 1.714235e-002 2.329139e-003 6.641294e-001 -7.269971e-001 1.743773e-001
-8.542310e-003 1.704572e-002 1.678727e-003 9.828037e-001 -1.314567e-001 1.296768e-001
-8.477554e-003 1.694944e-002 1.030700e-003 9.921094e-001 -1.010463e-001 7.422040e-002
-6.376619e-003 1.478086e-002 4.294628e-003 -4.476238e-002 -9.792722e-001 1.975406e-001
-6.266295e-003 1.466024e-002 4.294627e-003 -2.597381e-003 -2.384846e-003 9.999938e-001
-4.112951e-003 1.228016e-002 3.637012e-003 -6.399783e-001 6.980042e-001 3.212754e-001
-3.259279e-003 1.133395e-002 3.309116e-003 7.919816e-001 -5.344133e-001 2.952416e-001
-3.176601e-003 1.123069e-002 2.981853e-003 9.306566e-001 -5.742719e-002 3.613591e-001
-3.066681e-003 1.111052e-002 2.981852e-003 7.578780e-001 5.783182e-001 3.019418e-001
-2.929220e-003 1.097311e-002 3.309112e-003 -1.580682e-001 6.071539e-001 7.787032e-001
-2.819200e-003 1.085282e-002 3.309111e-003 -5.238083e-001 -8.441141e-001 1.144394e-001
-2.709180e-003 1.073254e-002 3.309110e-003 -3.932147e-001 -8.673820e-001 3.050092e-001
-2.627008e-003 1.062983e-002 2.981847e-003 3.649478e-002 -8.965271e-001 4.414830e-001
2.555426e-003 5.146286e-003 7.618995e-003 9.974511e-001 2.614858e-002 6.638904e-002
2.600709e-003 5.070437e-003 6.949181e-003 9.934301e-001 8.191878e-002 7.991178e-002
2.612907e-003 5.017774e-003 5.949093e-003 9.901126e-001 1.012469e-001 9.708817e-002
2.690775e-003 4.919580e-003 5.616942e-003 9.890263e-001 1.048903e-001 1.040431e-001
2.801507e-003 4.798518e-003 5.616941e-003 9.971333e-001 1.206628e-002 7.469679e-002
2.780180e-003 4.769830e-003 4.294540e-003 9.924688e-001 -1.152410e-001 4.153458e-002
2.857541e-003 4.672312e-003 3.965429e-003 9.985265e-001 -3.767503e-002 3.905591e-002
2.901813e-003 4.598098e-003 3.309056e-003 9.980878e-001 4.788484e-002 3.908686e-002
2.945923e-003 4.524156e-003 2.655098e-003 9.949591e-001 9.237805e-002 3.902068e-002
2.957030e-003 4.473614e-003 1.678616e-003 -9.979045e-001 -4.314415e-002 4.822071e-002
3.561929e-003 3.876400e-003 3.309050e-003 -8.693114e-001 -4.538922e-001 1.956517e-001
3.705599e-003 3.732221e-003 3.636936e-003 -9.560511e-001 2.099450e-001 2.046688e-001
5.436569e-003 1.788337e-003 2.329003e-003 -6.670015e-001 7.433584e-001 5.027111e-002
-1.610741e-002 2.572780e-002 5.949854e-003 1.099202e-001 9.872766e-001 1.149022e-001
-1.602793e-002 2.561436e-002 5.286208e-003 -9.262645e-001 -3.047636e-001 2.217051e-001
-1.399062e-002 2.325572e-002 2.004261e-003 -6.671683e-001 7.162844e-001 2.045070e-001
-1.381089e-002 2.311143e-002 3.309794e-003 -5.867003e-001 7.902166e-001 1.770325e-001
-1.337286e-002 2.271160e-002 5.286182e-003 -6.602005e-001 7.206930e-001 2.115109e-001
-1.237374e-002 2.169921e-002 7.284502e-003 1.209338e-002 -9.524394e-001 3.044879e-001
-8.487351e-003 1.725207e-002 2.329712e-003 6.641268e-001 -7.269995e-001 1.743771e-001
-8.422576e-003 1.715524e-002 1.679299e-003 6.641279e-001 -7.269982e-001 1.743782e-001
-8.358039e-003 1.705876e-002 1.031271e-003 6.641288e-001 -7.269977e-001 1.743771e-001
-6.662339e-003 1.541492e-002 6.282510e-003 0.000000e+000 0.000000e+000 0.000000e+000
-6.256004e-003 1.489118e-002 4.295205e-003 -5.616263e-002 -9.807436e-001 1.870500e-001
-6.145681e-003 1.477057e-002 4.295203e-003 -2.951345e-001 -4.149812e-001 8.606313e-001
-6.035357e-003 1.464995e-002 4.295202e-003 -2.861823e-001 -4.721682e-001 8.337606e-001
-3.992559e-003 1.239028e-002 3.637587e-003 -6.399780e-001 6.980045e-001 3.212754e-001
-3.828900e-003 1.223766e-002 4.295181e-003 -1.009292e-001 9.551026e-001 2.785539e-001
-3.138997e-003 1.144397e-002 3.309690e-003 5.962784e-001 -7.348987e-001 3.230726e-001
-3.056429e-003 1.134061e-002 2.982427e-003 -9.760915e-001 -1.116263e-001 1.865071e-001
2.565813e-003 5.379363e-003 7.619578e-003 9.981245e-001 -2.658115e-002 5.514370e-002
2.611078e-003 5.303084e-003 6.949762e-003 9.973607e-001 -6.738705e-005 7.260559e-002
2.656175e-003 5.227086e-003 6.282420e-003 9.948525e-001 4.886016e-002 8.877583e-002
2.701105e-003 5.151369e-003 5.617522e-003 9.834355e-001 1.280893e-001 1.282492e-001
2.811834e-003 5.030309e-003 5.617521e-003 9.852628e-001 9.937190e-002 1.392211e-001
2.889450e-003 4.932192e-003 5.286025e-003 9.842525e-001 -1.610237e-001 7.292797e-002
2.867822e-003 4.903037e-003 3.966006e-003 9.653531e-001 -2.597186e-001 2.529265e-002
2.879184e-003 4.851269e-003 2.982369e-003 9.868749e-001 -1.612327e-001 9.053030e-003
2.923295e-003 4.776933e-003 2.329602e-003 9.993041e-001 -3.644407e-002 7.945307e-003
3.000100e-003 4.679943e-003 2.004097e-003 9.980096e-001 5.644182e-002 2.812608e-002
3.648614e-003 4.010059e-003 2.982362e-003 -8.380467e-001 5.187091e-001 1.691702e-001
4.029866e-003 3.698648e-003 5.617510e-003 -2.087056e-001 9.724774e-001 1.035844e-001
5.690815e-003 1.882751e-003 5.617493e-003 -9.403603e-001 -3.215716e-001 1.109693e-001
5.765778e-003 1.787534e-003 5.285997e-003 -8.754625e-001 -4.681643e-001 1.199482e-001
7.240380e-003 1.489181e-004 4.624751e-003 9.806790e-001 1.714453e-001 9.420889e-002
7.165122e-003 8.744976e-005 1.031121e-003 3.266045e-001 -9.361910e-001 1.299077e-001
-1.747398e-002 2.731791e-002 2.330374e-003 -5.713273e-001 -7.259833e-001 3.827969e-001
-1.736426e-002 2.719795e-002 2.330372e-003 -9.716700e-001 2.062240e-001 1.154514e-001
-1.612823e-002 2.596688e-002 5.286788e-003 -9.906058e-001 9.669116e-002 9.670019e-002
-1.598623e-002 2.583863e-002 5.950433e-003 -5.711037e-002 9.723836e-001 2.262929e-001
