ply
format ascii 1.0
comment Written by HALCON (export v1.0)
element vertex 470
property float x
property float y
property float z
property float nx
property float ny
property float nz
property float score
end_header
-4.332624e-002 -4.981679e-003 4.718178e-003 9.472578e-001 2.865905e-001 1.434173e-001 7.928415e-001
-4.332867e-002 -4.730227e-003 4.722094e-003 -2.536562e-001 -1.750886e-002 9.671360e-001 7.617985e-001
-4.304021e-002 -4.381879e-003 3.971493e-003 -2.536509e-001 -1.750495e-002 9.671374e-001 7.346393e-001
-4.304142e-002 -4.256387e-003 3.973448e-003 -2.536531e-001 -1.749850e-002 9.671370e-001 7.055536e-001
-4.864423e-002 -9.902316e-003 1.818333e-002 8.824146e-001 3.639198e-001 2.981726e-001 7.431476e-001
-4.864548e-002 -9.772317e-003 1.818535e-002 9.271269e-001 4.010629e-002 3.725950e-001 7.310814e-001
-4.719359e-002 -1.033376e-002 1.443235e-002 9.270193e-001 7.248668e-002 3.679414e-001 7.352476e-001
-4.709328e-002 -1.012520e-002 1.417074e-002 9.263723e-001 -2.557794e-002 3.757393e-001 7.262875e-001
-4.719855e-002 -9.818486e-003 1.444037e-002 9.232730e-001 -9.337731e-003 3.840308e-001 7.204159e-001
-4.719980e-002 -9.689664e-003 1.444238e-002 9.240249e-001 2.951720e-003 3.823210e-001 7.244557e-001
-4.720104e-002 -9.560850e-003 1.444438e-002 9.240249e-001 2.952673e-003 3.823208e-001 7.249609e-001
-4.720228e-002 -9.432029e-003 1.444639e-002 9.240248e-001 2.942414e-003 3.823214e-001 7.109097e-001
-4.345030e-002 -4.730902e-003 4.690181e-003 -2.536553e-001 -1.750693e-002 9.671363e-001 7.596422e-001
-4.316161e-002 -4.382553e-003 3.939640e-003 -2.536519e-001 -1.750092e-002 9.671372e-001 7.223871e-001
-4.278710e-002 -5.583481e-002 3.106568e-003 0.000000e+000 0.000000e+000 0.000000e+000 9.523920e-001
-4.856062e-002 -1.000222e-002 1.760977e-002 9.205903e-001 -7.834990e-002 3.825895e-001 7.231731e-001
-4.856312e-002 -9.742571e-003 1.761381e-002 9.204218e-001 -4.911457e-002 3.878292e-001 7.111733e-001
-4.856437e-002 -9.612744e-003 1.761583e-002 7.358702e-001 6.455151e-001 2.044635e-001 7.124426e-001
-8.596835e-002 -3.723432e-002 1.119710e-001 -2.536606e-001 -1.750392e-002 9.671349e-001 9.346762e-001
-8.596989e-002 -3.707462e-002 1.119735e-001 -2.536479e-001 -1.750557e-002 9.671382e-001 9.245577e-001
-8.612285e-002 -3.723518e-002 1.119305e-001 -2.536539e-001 -1.750469e-002 9.671367e-001 9.509883e-001
-8.612439e-002 -3.707547e-002 1.119330e-001 -2.536607e-001 -1.750161e-002 9.671349e-001 9.447773e-001
-8.612593e-002 -3.691577e-002 1.119355e-001 -2.536624e-001 -1.751291e-002 9.671342e-001 9.315493e-001
-8.627734e-002 -3.723604e-002 1.118900e-001 -2.536528e-001 -1.750610e-002 9.671369e-001 9.587417e-001
-8.627889e-002 -3.707633e-002 1.118925e-001 -2.536526e-001 -1.750506e-002 9.671370e-001 9.576854e-001
-8.628043e-002 -3.691663e-002 1.118949e-001 -2.536528e-001 -1.750707e-002 9.671369e-001 9.523503e-001
-8.628196e-002 -3.675693e-002 1.118974e-001 -2.536508e-001 -1.750265e-002 9.671375e-001 9.411023e-001
-9.380099e-002 -4.087888e-002 1.307940e-001 0.000000e+000 0.000000e+000 0.000000e+000 9.115101e-001
-9.380419e-002 -4.054752e-002 1.307991e-001 0.000000e+000 0.000000e+000 0.000000e+000 8.799543e-001
-9.380578e-002 -4.038183e-002 1.308017e-001 0.000000e+000 0.000000e+000 0.000000e+000 8.577344e-001
-8.643339e-002 -3.707718e-002 1.118519e-001 -1.319948e-001 -2.062792e-001 9.695495e-001 9.619499e-001
-8.643493e-002 -3.691749e-002 1.118544e-001 -1.205927e-001 -1.912164e-001 9.741117e-001 9.594346e-001
-8.643647e-002 -3.675779e-002 1.118569e-001 -6.342406e-002 -3.102031e-001 9.485523e-001 9.496312e-001
-8.658635e-002 -3.723776e-002 1.118089e-001 -2.536546e-001 -1.750803e-002 9.671364e-001 9.612168e-001
-8.658788e-002 -3.707805e-002 1.118114e-001 -2.744526e-002 -3.922563e-001 9.194464e-001 9.630620e-001
-8.658943e-002 -3.691835e-002 1.118139e-001 2.022133e-002 -4.424610e-001 8.965597e-001 9.634826e-001
-8.659096e-002 -3.675864e-002 1.118164e-001 4.636891e-002 -5.936948e-001 8.033533e-001 9.568118e-001
-9.464643e-002 -3.977119e-002 1.320444e-001 0.000000e+000 0.000000e+000 0.000000e+000 7.785677e-001
-8.674084e-002 -3.723861e-002 1.117684e-001 -2.536538e-001 -1.750310e-002 9.671367e-001 9.574783e-001
-8.674238e-002 -3.707891e-002 1.117708e-001 1.747237e-002 -5.330058e-001 8.459311e-001 9.585207e-001
-8.674392e-002 -3.691920e-002 1.117733e-001 4.108661e-002 -5.572813e-001 8.293066e-001 9.592530e-001
-8.690482e-002 -3.671998e-002 1.121837e-001 -1.856838e-002 -7.437234e-001 6.682296e-001 9.549490e-001
-8.689535e-002 -3.723947e-002 1.117278e-001 3.262198e-001 1.379356e-002 9.451933e-001 9.514417e-001
-8.689689e-002 -3.707976e-002 1.117303e-001 2.329048e-001 -5.233222e-001 8.196885e-001 9.539898e-001
-8.689842e-002 -3.692006e-002 1.117328e-001 2.317842e-001 -4.737065e-001 8.496342e-001 9.557223e-001
-8.705943e-002 -3.672084e-002 1.121431e-001 1.337998e-001 -6.442691e-001 7.530040e-001 9.531854e-001
-8.706097e-002 -3.656101e-002 1.121456e-001 5.084763e-002 -7.591717e-001 6.489013e-001 9.488562e-001
-8.704984e-002 -3.724033e-002 1.116873e-001 4.606648e-001 -6.700056e-004 8.875739e-001 9.353467e-001
-8.705138e-002 -3.708062e-002 1.116898e-001 3.117834e-001 -4.971715e-001 8.096985e-001 9.405369e-001
-8.705292e-002 -3.692092e-002 1.116923e-001 3.214079e-001 -4.484468e-001 8.340219e-001 9.408261e-001
-8.721405e-002 -3.672170e-002 1.121025e-001 1.845035e-001 -5.929763e-001 7.837969e-001 9.459408e-001
-8.721559e-002 -3.656187e-002 1.121050e-001 6.423200e-002 -7.082066e-001 7.030773e-001 9.444269e-001
-4.744426e-002 -5.029765e-002 1.016769e-002 0.000000e+000 0.000000e+000 0.000000e+000 7.754488e-001
-8.736099e-002 -3.752171e-002 1.120496e-001 5.384152e-001 2.198625e-001 8.134922e-001 8.881368e-001
-8.736405e-002 -3.720205e-002 1.120545e-001 5.563697e-001 7.609618e-002 8.274431e-001 9.219589e-001
-8.736559e-002 -3.704222e-002 1.120570e-001 4.260547e-001 -2.445602e-001 8.710153e-001 9.256099e-001
-8.736713e-002 -3.688239e-002 1.120595e-001 3.376338e-001 -3.617038e-001 8.690073e-001 9.295520e-001
-8.736867e-002 -3.672256e-002 1.120620e-001 2.109928e-001 -5.289465e-001 8.220083e-001 9.371862e-001
-8.737021e-002 -3.656273e-002 1.120644e-001 8.256911e-002 -6.586359e-001 7.479178e-001 9.342538e-001
-8.751868e-002 -3.720292e-002 1.120139e-001 6.146305e-001 6.797949e-002 7.858805e-001 8.782151e-001
-8.752021e-002 -3.704308e-002 1.120164e-001 5.071123e-001 -8.677976e-002 8.575001e-001 8.922633e-001
-8.752175e-002 -3.688325e-002 1.120189e-001 4.165823e-001 -2.156637e-001 8.831469e-001 9.021036e-001
-8.752330e-002 -3.672342e-002 1.120214e-001 2.682065e-001 -3.745476e-001 8.875694e-001 9.170769e-001
-8.767794e-002 -3.672427e-002 1.119809e-001 -2.535021e-001 -1.753450e-002 9.671759e-001 8.644086e-001
-8.850179e-002 -3.443956e-002 1.140618e-001 0.000000e+000 0.000000e+000 0.000000e+000 9.467566e-001
-8.865703e-002 -3.444042e-002 1.140211e-001 0.000000e+000 0.000000e+000 0.000000e+000 9.513600e-001
-8.881228e-002 -3.444128e-002 1.139803e-001 0.000000e+000 0.000000e+000 0.000000e+000 9.547082e-001
-8.879352e-002 -3.576643e-002 1.135087e-001 -2.536233e-001 -1.752699e-002 9.671443e-001 8.809897e-001
-8.879506e-002 -3.560609e-002 1.135112e-001 -2.536244e-001 -1.751616e-002 9.671442e-001 8.977582e-001
-8.879661e-002 -3.544574e-002 1.135137e-001 -2.536319e-001 -1.751212e-002 9.671423e-001 9.131840e-001
-8.896752e-002 -3.444215e-002 1.139396e-001 0.000000e+000 0.000000e+000 0.000000e+000 9.534297e-001
-9.239586e-002 -5.281764e-002 1.223837e-001 -2.536489e-001 -1.751392e-002 9.671378e-001 9.178126e-001
-9.239743e-002 -5.265440e-002 1.223862e-001 -2.536494e-001 -1.751080e-002 9.671377e-001 9.394597e-001
-8.894864e-002 -3.576729e-002 1.134680e-001 -2.536422e-001 -1.752285e-002 9.671394e-001 8.279494e-001
-8.895018e-002 -3.560695e-002 1.134705e-001 -2.536475e-001 -1.751204e-002 9.671382e-001 8.622484e-001
-8.912277e-002 -3.444301e-002 1.138989e-001 0.000000e+000 0.000000e+000 0.000000e+000 9.520520e-001
-9.255377e-002 -5.281852e-002 1.223423e-001 -2.536539e-001 -1.752804e-002 9.671362e-001 9.360831e-001
-9.255535e-002 -5.265528e-002 1.223448e-001 -2.536537e-001 -1.751176e-002 9.671366e-001 9.511295e-001
-9.255692e-002 -5.249204e-002 1.223474e-001 -2.536543e-001 -1.751208e-002 9.671364e-001 9.543921e-001
-9.255850e-002 -5.232881e-002 1.223499e-001 -2.536569e-001 -1.750920e-002 9.671358e-001 9.616503e-001
-9.256007e-002 -5.216557e-002 1.223524e-001 -2.536898e-001 -1.750937e-002 9.671271e-001 9.681998e-001
-8.927801e-002 -3.444387e-002 1.138581e-001 0.000000e+000 0.000000e+000 0.000000e+000 9.391450e-001
-9.283383e-002 -5.752995e-002 1.226527e-001 -2.536348e-001 -1.752184e-002 9.671413e-001 9.129915e-001
-9.271327e-002 -5.265616e-002 1.223034e-001 -2.536550e-001 -1.751089e-002 9.671362e-001 9.352593e-001
-9.271485e-002 -5.249292e-002 1.223059e-001 -2.536705e-001 -1.751013e-002 9.671322e-001 9.446022e-001
-9.271642e-002 -5.232968e-002 1.223085e-001 -2.536604e-001 -1.750755e-002 9.671349e-001 9.543135e-001
-9.264382e-002 -5.888230e-002 1.217406e-001 -2.536504e-001 -1.751183e-002 9.671374e-001 9.042403e-001
-9.264539e-002 -5.871919e-002 1.217432e-001 -2.536477e-001 -1.750544e-002 9.671382e-001 9.082405e-001
-9.299188e-002 -5.753083e-002 1.226112e-001 -2.536517e-001 -1.751344e-002 9.671370e-001 8.955599e-001
-9.299345e-002 -5.736746e-002 1.226137e-001 -2.536503e-001 -1.751145e-002 9.671375e-001 8.974193e-001
-9.299503e-002 -5.720409e-002 1.226163e-001 -2.536486e-001 -1.749678e-002 9.671382e-001 8.911382e-001
-9.280161e-002 -5.888317e-002 1.216992e-001 -2.536517e-001 -1.751876e-002 9.671370e-001 9.130526e-001
-9.280318e-002 -5.872007e-002 1.217018e-001 -2.536543e-001 -1.750851e-002 9.671365e-001 9.135054e-001
-9.314992e-002 -5.753171e-002 1.225697e-001 -2.536689e-001 -1.752657e-002 9.671323e-001 8.727295e-001
-9.315149e-002 -5.736833e-002 1.225723e-001 -2.536657e-001 -1.751073e-002 9.671334e-001 8.710405e-001
-9.041570e-002 -3.218682e-002 1.154183e-001 -2.536577e-001 -1.749379e-002 9.671358e-001 9.218150e-001
-9.041725e-002 -3.202583e-002 1.154208e-001 -2.536545e-001 -1.749822e-002 9.671366e-001 9.096663e-001
-9.295940e-002 -5.888405e-002 1.216578e-001 -2.536513e-001 -1.750828e-002 9.671373e-001 9.305597e-001
-9.296097e-002 -5.872095e-002 1.216604e-001 -2.536510e-001 -1.750953e-002 9.671373e-001 9.261490e-001
-4.690700e-002 -4.682036e-002 4.976694e-003 9.299265e-001 2.311027e-002 3.670186e-001 9.389488e-001
-9.470963e-002 -3.485699e-002 1.258762e-001 8.299005e-001 4.817779e-001 2.813455e-001 9.278366e-001
-4.690943e-002 -4.656779e-002 4.980627e-003 9.288876e-001 -1.366582e-002 3.701095e-001 9.105862e-001
-9.471280e-002 -3.452836e-002 1.258814e-001 9.217938e-001 -9.992426e-002 3.745816e-001 8.761185e-001
-9.471439e-002 -3.436404e-002 1.258839e-001 8.039958e-001 -4.691586e-001 3.653505e-001 8.280477e-001
-9.056990e-002 -3.234868e-002 1.153750e-001 -2.536525e-001 -1.748891e-002 9.671373e-001 9.425968e-001
-9.057145e-002 -3.218769e-002 1.153775e-001 -2.536511e-001 -1.749500e-002 9.671376e-001 9.333801e-001
-9.311090e-002 -5.953734e-002 1.216063e-001 -2.536759e-001 -1.750771e-002 9.671308e-001 8.975362e-001
-9.311718e-002 -5.888492e-002 1.216164e-001 -2.536522e-001 -1.750798e-002 9.671370e-001 9.357153e-001
-9.351955e-002 -5.197883e-002 1.225733e-001 -9.567230e-001 -2.584701e-001 1.336944e-001 9.367375e-001
-9.486860e-002 -3.485787e-002 1.258345e-001 4.727691e-001 8.753103e-001 1.015936e-001 9.509994e-001
-9.487018e-002 -3.469356e-002 1.258371e-001 9.099806e-001 -1.700472e-001 3.781789e-001 9.404050e-001
-9.487177e-002 -3.452924e-002 1.258397e-001 8.922161e-001 -2.461930e-001 3.786020e-001 9.301075e-001
-9.487335e-002 -3.436493e-002 1.258422e-001 8.650762e-001 -3.320459e-001 3.760168e-001 9.080651e-001
-9.487493e-002 -3.420062e-002 1.258448e-001 -5.131917e-001 5.545859e-001 6.550334e-001 8.470151e-001
-9.072565e-002 -3.234955e-002 1.153341e-001 -2.536478e-001 -1.749294e-002 9.671385e-001 9.516437e-001
-9.072720e-002 -3.218855e-002 1.153366e-001 -2.536434e-001 -1.749719e-002 9.671395e-001 9.469524e-001
-9.072874e-002 -3.202756e-002 1.153391e-001 -2.536451e-001 -1.750115e-002 9.671390e-001 9.462269e-001
-9.327026e-002 -5.937511e-002 1.215674e-001 -2.536563e-001 -1.750382e-002 9.671360e-001 9.263889e-001
-9.327183e-002 -5.921201e-002 1.215700e-001 -2.536465e-001 -1.750721e-002 9.671385e-001 9.292446e-001
-9.327340e-002 -5.904890e-002 1.215725e-001 -2.536458e-001 -1.751083e-002 9.671386e-001 9.344116e-001
-9.327497e-002 -5.888580e-002 1.215750e-001 -2.536471e-001 -1.750818e-002 9.671384e-001 9.377202e-001
-9.350915e-002 -5.200759e-002 1.221064e-001 -8.354878e-001 -2.053557e-001 5.096951e-001 9.308261e-001
-9.351072e-002 -5.184435e-002 1.221089e-001 -7.781821e-001 1.643307e-001 6.061583e-001 9.280989e-001
-9.351387e-002 -5.151788e-002 1.221140e-001 -2.536440e-001 -1.748806e-002 9.671395e-001 9.067533e-001
-9.502755e-002 -3.485876e-002 1.257928e-001 3.543122e-001 9.338391e-001 4.906576e-002 9.510804e-001
-9.502914e-002 -3.469444e-002 1.257954e-001 8.411022e-001 -3.908421e-001 3.738843e-001 9.473787e-001
-9.503072e-002 -3.453013e-002 1.257979e-001 8.918152e-001 -2.452730e-001 3.801403e-001 9.438847e-001
-9.503230e-002 -3.436581e-002 1.258005e-001 9.002811e-001 -2.130946e-001 3.795848e-001 9.283107e-001
-9.486654e-002 -3.391584e-002 1.253776e-001 -7.233038e-001 5.953132e-001 3.499054e-001 8.396113e-001
-9.343119e-002 -5.904978e-002 1.215311e-001 -2.536496e-001 -1.750943e-002 9.671377e-001 9.339909e-001
-9.343276e-002 -5.888668e-002 1.215336e-001 -2.536477e-001 -1.751224e-002 9.671381e-001 9.334567e-001
-9.131563e-002 -5.449213e-002 1.161496e-001 0.000000e+000 0.000000e+000 0.000000e+000 9.385974e-001
-9.366706e-002 -5.200846e-002 1.220650e-001 -8.050917e-001 1.561112e-001 5.722383e-001 9.048625e-001
-9.366863e-002 -5.184523e-002 1.220675e-001 -7.739654e-001 1.710747e-001 6.096811e-001 9.019549e-001
-9.367021e-002 -5.168199e-002 1.220700e-001 -7.764686e-001 1.706087e-001 6.066211e-001 8.861451e-001
-9.367178e-002 -5.151875e-002 1.220726e-001 -2.536448e-001 -1.750934e-002 9.671389e-001 8.909822e-001
-8.552916e-002 -4.224755e-002 1.014320e-001 0.000000e+000 0.000000e+000 0.000000e+000 7.022364e-001
-9.518810e-002 -3.469532e-002 1.257537e-001 -2.536614e-001 -1.750142e-002 9.671348e-001 9.453763e-001
-9.518968e-002 -3.453101e-002 1.257562e-001 -2.536457e-001 -1.750321e-002 9.671388e-001 9.414359e-001
-9.502378e-002 -3.408090e-002 1.253334e-001 -7.067450e-001 5.748440e-001 4.123904e-001 9.147171e-001
-9.485972e-002 -3.346749e-002 1.249138e-001 -1.394155e-001 8.467100e-001 5.134642e-001 8.471454e-001
-9.358270e-002 -5.970307e-002 1.214795e-001 -2.536530e-001 -1.750700e-002 9.671368e-001 9.239420e-001
-9.358427e-002 -5.953997e-002 1.214821e-001 -2.536562e-001 -1.750567e-002 9.671360e-001 9.308367e-001
-9.358584e-002 -5.937687e-002 1.214846e-001 -2.536537e-001 -1.750342e-002 9.671367e-001 9.337747e-001
-9.358741e-002 -5.921376e-002 1.214872e-001 -2.536539e-001 -1.750593e-002 9.671366e-001 9.310538e-001
-9.358899e-002 -5.905066e-002 1.214897e-001 -2.536497e-001 -1.751276e-002 9.671376e-001 9.324508e-001
-9.359056e-002 -5.888755e-002 1.214922e-001 -2.536464e-001 -1.751736e-002 9.671384e-001 9.274325e-001
-9.359213e-002 -5.872445e-002 1.214948e-001 -2.536569e-001 -1.748884e-002 9.671361e-001 9.062483e-001
-9.382499e-002 -5.200934e-002 1.220235e-001 -2.536667e-001 -1.751291e-002 9.671331e-001 8.520054e-001
-9.382656e-002 -5.184611e-002 1.220261e-001 -2.536484e-001 -1.749981e-002 9.671382e-001 8.447894e-001
-9.501842e-002 -3.346837e-002 1.248722e-001 -1.394177e-001 8.467097e-001 5.134642e-001 9.113328e-001
-9.374205e-002 -5.954085e-002 1.214407e-001 -2.536822e-001 -1.751287e-002 9.671291e-001 9.306656e-001
-9.374362e-002 -5.937774e-002 1.214432e-001 -2.536614e-001 -1.750220e-002 9.671347e-001 9.325676e-001
-9.374519e-002 -5.921464e-002 1.214458e-001 -2.536682e-001 -1.750180e-002 9.671329e-001 9.222918e-001
-9.162789e-002 -5.449386e-002 1.160677e-001 -1.445187e-001 9.846638e-001 9.773189e-002 9.653386e-001
-9.399549e-002 -5.070432e-002 1.220024e-001 0.000000e+000 0.000000e+000 0.000000e+000 9.193848e-001
-9.500993e-002 -3.318467e-002 1.244066e-001 -1.853013e-001 6.490037e-001 7.378737e-001 9.147588e-001
-9.501151e-002 -3.302075e-002 1.244092e-001 8.212046e-001 5.002285e-001 2.745806e-001 9.040451e-001
-9.161916e-002 -5.452024e-002 1.156118e-001 -7.645562e-001 6.377901e-001 9.315282e-002 9.727817e-001
-9.162072e-002 -5.435899e-002 1.156143e-001 -8.192811e-001 5.569130e-001 1.364786e-001 9.712527e-001
-9.415341e-002 -5.070519e-002 1.219610e-001 0.000000e+000 0.000000e+000 0.000000e+000 9.239081e-001
-9.517008e-002 -3.302163e-002 1.243676e-001 4.104138e-001 9.090475e-001 7.206314e-002 9.434681e-001
-9.517166e-002 -3.285772e-002 1.243701e-001 4.074014e-001 9.105420e-001 7.026712e-002 9.192902e-001
-9.517324e-002 -3.269381e-002 1.243727e-001 2.983591e-001 -9.305385e-001 2.123204e-001 8.488390e-001
-9.110550e-002 -5.590862e-002 1.138978e-001 0.000000e+000 0.000000e+000 0.000000e+000 9.284461e-001
-9.177516e-002 -5.452111e-002 1.155708e-001 -6.713663e-001 7.287860e-001 1.346782e-001 9.742505e-001
-9.532706e-002 -3.318642e-002 1.243234e-001 -2.536549e-001 -1.749422e-002 9.671366e-001 9.591767e-001
-9.532864e-002 -3.302251e-002 1.243260e-001 3.213291e-001 9.463707e-001 3.361709e-002 9.625854e-001
-9.533022e-002 -3.285860e-002 1.243285e-001 4.048972e-001 9.117074e-001 6.962712e-002 9.497170e-001
-4.727603e-002 -4.506060e-002 3.513621e-003 9.267173e-001 -4.703695e-002 3.728037e-001 9.304920e-001
-4.727724e-002 -4.493472e-002 3.515581e-003 9.192931e-001 -1.137815e-001 3.767678e-001 8.703533e-001
-9.165703e-002 -3.267673e-002 1.150839e-001 0.000000e+000 0.000000e+000 0.000000e+000 8.900893e-001
-9.126099e-002 -5.590948e-002 1.138570e-001 0.000000e+000 0.000000e+000 0.000000e+000 9.580269e-001
-9.548721e-002 -3.302339e-002 1.242844e-001 6.557648e-001 -6.792951e-001 3.294400e-001 9.587845e-001
-9.548879e-002 -3.285948e-002 1.242869e-001 6.344740e-001 -7.021334e-001 3.231895e-001 9.585412e-001
-9.157199e-002 -5.591121e-002 1.137754e-001 0.000000e+000 0.000000e+000 0.000000e+000 9.789285e-001
-8.366054e-002 -4.366966e-002 9.381244e-002 0.000000e+000 0.000000e+000 0.000000e+000 7.168029e-001
-8.760414e-002 -3.448924e-002 1.036316e-001 -7.583183e-001 -5.983602e-001 2.586861e-001 9.384463e-001
-9.467621e-002 -6.085093e-002 1.211720e-001 0.000000e+000 0.000000e+000 0.000000e+000 9.145674e-001
-9.519766e-002 -4.185856e-002 1.223164e-001 0.000000e+000 0.000000e+000 0.000000e+000 8.600991e-001
-8.775493e-002 -3.464751e-002 1.035892e-001 -7.012242e-001 -6.756595e-001 2.275277e-001 9.578931e-001
-8.775644e-002 -3.449008e-002 1.035916e-001 -6.506411e-001 -7.092803e-001 2.712703e-001 9.609396e-001
-8.775796e-002 -3.433265e-002 1.035941e-001 -6.210241e-001 -7.146771e-001 3.218163e-001 9.497041e-001
-8.775098e-002 -3.453161e-002 1.031567e-001 -5.485780e-001 -7.815139e-001 2.971500e-001 9.656317e-001
-8.791026e-002 -3.433349e-002 1.035541e-001 -5.940758e-001 -7.190818e-001 3.605487e-001 9.621122e-001
-8.410860e-002 -4.367215e-002 9.369489e-002 0.000000e+000 0.000000e+000 0.000000e+000 7.492499e-001
-8.790316e-002 -3.453245e-002 1.031168e-001 -6.079459e-001 -7.312616e-001 3.092867e-001 9.745455e-001
-8.806256e-002 -3.433434e-002 1.035141e-001 -6.159325e-001 -7.205147e-001 3.185683e-001 9.692927e-001
-8.806407e-002 -3.417691e-002 1.035166e-001 -5.035429e-001 -7.648630e-001 4.017824e-001 9.618756e-001
-9.561295e-002 -3.156790e-002 1.223937e-001 -2.538851e-001 -1.760845e-002 9.670741e-001 9.343023e-001
-8.805534e-002 -3.453330e-002 1.030768e-001 -2.039057e-001 -8.491973e-001 4.871205e-001 9.765522e-001
-9.577258e-002 -3.140540e-002 1.223548e-001 -2.537462e-001 -1.760122e-002 9.671107e-001 9.559970e-001
-9.577416e-002 -3.124203e-002 1.223573e-001 -2.537212e-001 -1.757122e-002 9.671178e-001 9.263655e-001
-9.593061e-002 -3.140629e-002 1.223133e-001 -2.537789e-001 -1.764813e-002 9.671012e-001 9.602525e-001
-9.593218e-002 -3.124291e-002 1.223158e-001 -2.537234e-001 -1.759862e-002 9.671167e-001 9.515523e-001
-9.216329e-002 -5.724868e-002 1.126887e-001 -8.220932e-001 5.587889e-001 1.091684e-001 9.698383e-001
-8.440305e-002 -4.386169e-002 9.319533e-002 -2.536611e-001 -1.750973e-002 9.671347e-001 8.709481e-001
-8.440602e-002 -4.355316e-002 9.320014e-002 -2.536555e-001 -1.751005e-002 9.671361e-001 7.330138e-001
-8.440899e-002 -4.324464e-002 9.320495e-002 -2.536607e-001 -1.751087e-002 9.671348e-001 7.052631e-001
-9.609024e-002 -3.124379e-002 1.222744e-001 -2.536742e-001 -1.759196e-002 9.671298e-001 9.587823e-001
-9.609181e-002 -3.108042e-002 1.222769e-001 -2.536967e-001 -1.761592e-002 9.671234e-001 9.421363e-001
-9.231699e-002 -5.741001e-002 1.126454e-001 -9.110722e-001 3.870256e-001 1.419809e-001 9.737076e-001
-8.455525e-002 -4.355399e-002 9.316099e-002 -2.536559e-001 -1.750937e-002 9.671360e-001 7.408566e-001
-8.455674e-002 -4.339973e-002 9.316339e-002 -4.399775e-001 3.970515e-001 8.054625e-001 7.119613e-001
-8.455823e-002 -4.324547e-002 9.316579e-002 -4.905371e-001 3.851354e-001 7.816930e-001 7.309764e-001
-9.625144e-002 -3.091792e-002 1.222380e-001 -2.533961e-001 -1.737598e-002 9.672065e-001 9.483514e-001
-9.230778e-002 -5.743389e-002 1.121949e-001 -8.359479e-001 4.742565e-001 2.761734e-001 9.753908e-001
-9.230932e-002 -5.727355e-002 1.121974e-001 -6.393031e-001 7.548832e-001 1.464335e-001 9.749991e-001
-8.470449e-002 -4.355482e-002 9.312183e-002 -4.471251e-001 -2.794919e-001 8.496843e-001 7.530434e-001
-8.470597e-002 -4.340056e-002 9.312423e-002 -4.755933e-001 5.173569e-001 7.114442e-001 7.332196e-001
-8.470746e-002 -4.324630e-002 9.312663e-002 -5.185476e-001 4.902487e-001 7.005459e-001 7.471272e-001
-9.423881e-002 -2.875197e-002 1.167665e-001 -2.536311e-001 -1.749584e-002 9.671428e-001 8.338028e-001
-9.245981e-002 -5.775545e-002 1.121492e-001 -6.802830e-001 -2.290819e-001 6.962302e-001 9.724046e-001
-9.246290e-002 -5.743475e-002 1.121542e-001 -5.938030e-001 -5.627016e-002 8.026404e-001 9.763230e-001
-8.469707e-002 -4.405092e-002 9.269664e-002 -5.682065e-001 -7.485759e-001 3.417245e-001 9.145733e-001
-8.485372e-002 -4.355565e-002 9.308267e-002 -2.875353e-001 -5.432949e-001 7.887675e-001 7.550922e-001
-8.485521e-002 -4.340139e-002 9.308508e-002 -5.069045e-001 5.726479e-001 6.442997e-001 7.354584e-001
-8.470598e-002 -4.312608e-002 9.271104e-002 -2.845839e-001 8.223778e-001 4.926528e-001 7.417235e-001
-9.439363e-002 -2.891449e-002 1.167230e-001 -2.536582e-001 -1.748504e-002 9.671358e-001 9.051268e-001
-9.439518e-002 -2.875284e-002 1.167255e-001 -2.536483e-001 -1.749521e-002 9.671383e-001 8.820282e-001
-9.261492e-002 -5.775631e-002 1.121085e-001 -2.536466e-001 -1.751102e-002 9.671385e-001 9.757584e-001
-9.261646e-002 -5.759596e-002 1.121110e-001 -2.536486e-001 -1.749789e-002 9.671382e-001 9.759801e-001
-9.261801e-002 -5.743562e-002 1.121135e-001 -2.536488e-001 -1.750159e-002 9.671381e-001 9.759414e-001
-8.469259e-002 -4.423822e-002 9.227682e-002 -5.469429e-001 -7.608951e-001 3.491306e-001 9.211985e-001
-8.484618e-002 -4.405175e-002 9.265751e-002 -5.745311e-001 -7.501106e-001 3.274876e-001 9.217240e-001
-8.484766e-002 -4.389761e-002 9.265991e-002 -5.503500e-001 -6.717618e-001 4.958336e-001 8.960161e-001
-8.485509e-002 -4.312690e-002 9.267192e-002 -2.630312e-001 8.295357e-001 4.926309e-001 7.299573e-001
-9.455000e-002 -2.891536e-002 1.166819e-001 -2.536471e-001 -1.750625e-002 9.671384e-001 9.273349e-001
-9.455156e-002 -2.875371e-002 1.166845e-001 -2.536480e-001 -1.749537e-002 9.671384e-001 9.179162e-001
-9.455468e-002 -2.843042e-002 1.166895e-001 -2.536484e-001 -1.748583e-002 9.671384e-001 7.649994e-001
-9.277314e-002 -5.743648e-002 1.120728e-001 -2.536471e-001 -1.749543e-002 9.671386e-001 9.753537e-001
-9.277468e-002 -5.727613e-002 1.120753e-001 -2.536468e-001 -1.748713e-002 9.671388e-001 9.716575e-001
-9.567026e-002 -5.102492e-002 1.192235e-001 0.000000e+000 0.000000e+000 0.000000e+000 9.092550e-001
-8.484159e-002 -4.423904e-002 9.223772e-002 -5.700958e-001 -7.364614e-001 3.641640e-001 9.212604e-001
-8.484308e-002 -4.408502e-002 9.224012e-002 -5.745069e-001 -7.501195e-001 3.275096e-001 9.226335e-001
-8.499679e-002 -4.389844e-002 9.262079e-002 -5.517694e-001 -7.087549e-001 4.395646e-001 8.916219e-001
-8.500422e-002 -4.312773e-002 9.263279e-002 -1.481428e-001 8.237720e-001 5.472233e-001 7.325233e-001
-9.470484e-002 -2.907788e-002 1.166384e-001 -2.536522e-001 -1.750691e-002 9.671370e-001 9.445707e-001
-9.470639e-002 -2.891623e-002 1.166409e-001 -2.536525e-001 -1.749726e-002 9.671372e-001 9.321886e-001
-9.470795e-002 -2.875458e-002 1.166434e-001 -2.536466e-001 -1.749609e-002 9.671387e-001 9.225062e-001
-9.292671e-002 -5.759769e-002 1.120296e-001 -2.536494e-001 -1.750150e-002 9.671379e-001 9.739418e-001
-9.292826e-002 -5.743734e-002 1.120321e-001 -2.536487e-001 -1.749372e-002 9.671382e-001 9.719871e-001
-9.292980e-002 -5.727699e-002 1.120346e-001 -2.536458e-001 -1.750489e-002 9.671388e-001 9.672105e-001
-8.499208e-002 -4.408585e-002 9.220102e-002 -5.682468e-001 -7.485586e-001 3.416953e-001 9.202247e-001
-9.485810e-002 -2.940204e-002 1.165923e-001 0.000000e+000 0.000000e+000 0.000000e+000 9.431464e-001
-9.486432e-002 -2.875545e-002 1.166024e-001 -2.536566e-001 -1.749627e-002 9.671361e-001 9.282330e-001
-9.308337e-002 -5.743820e-002 1.119914e-001 -2.536513e-001 -1.749762e-002 9.671375e-001 9.664249e-001
-9.040459e-002 -3.208309e-002 1.051290e-001 -2.536352e-001 -1.750445e-002 9.671416e-001 9.646627e-001
-9.323850e-002 -5.743906e-002 1.119507e-001 -2.536442e-001 -1.750004e-002 9.671392e-001 9.585719e-001
-9.055749e-002 -3.208393e-002 1.050889e-001 -2.536529e-001 -1.750299e-002 9.671369e-001 9.695939e-001
-9.055901e-002 -3.192588e-002 1.050914e-001 -2.536533e-001 -1.750439e-002 9.671368e-001 9.652054e-001
-9.337199e-002 -5.968478e-002 1.118750e-001 0.000000e+000 0.000000e+000 0.000000e+000 9.618602e-001
-9.071040e-002 -3.208478e-002 1.050488e-001 -2.536500e-001 -1.750310e-002 9.671377e-001 9.732686e-001
-9.071192e-002 -3.192672e-002 1.050512e-001 -2.536496e-001 -1.750351e-002 9.671378e-001 9.708491e-001
-9.071345e-002 -3.176867e-002 1.050537e-001 -2.536499e-001 -1.750421e-002 9.671377e-001 9.679977e-001
-9.071497e-002 -3.161061e-002 1.050562e-001 -2.536501e-001 -1.750301e-002 9.671376e-001 9.633834e-001
-9.533035e-002 -2.908135e-002 1.164743e-001 0.000000e+000 0.000000e+000 0.000000e+000 9.335488e-001
-9.858761e-002 -6.133468e-002 1.243799e-001 0.000000e+000 0.000000e+000 0.000000e+000 8.677233e-001
-9.086330e-002 -3.208563e-002 1.050087e-001 -5.342255e-001 -3.218791e-001 7.816629e-001 9.744745e-001
-9.086482e-002 -3.192757e-002 1.050111e-001 -5.269541e-001 -2.237007e-001 8.199253e-001 9.720189e-001
-9.086635e-002 -3.176952e-002 1.050136e-001 -5.023991e-001 -2.144884e-001 8.376096e-001 9.704165e-001
-9.086787e-002 -3.161146e-002 1.050160e-001 -2.536500e-001 -1.750298e-002 9.671377e-001 9.709142e-001
-9.086940e-002 -3.145341e-002 1.050185e-001 -2.536433e-001 -1.749605e-002 9.671396e-001 9.640129e-001
-9.548673e-002 -2.908222e-002 1.164332e-001 0.000000e+000 0.000000e+000 0.000000e+000 9.170864e-001
-9.351844e-002 -5.954745e-002 1.113872e-001 -8.213032e-002 9.526248e-001 2.928492e-001 9.711999e-001
-9.101621e-002 -3.208648e-002 1.049685e-001 -7.943331e-001 -1.364819e-001 5.919524e-001 9.751502e-001
-9.101926e-002 -3.177037e-002 1.049735e-001 -6.507303e-001 -2.605754e-001 7.131974e-001 9.737507e-001
-9.102078e-002 -3.161231e-002 1.049759e-001 -2.536540e-001 -1.750534e-002 9.671366e-001 9.748183e-001
-9.102231e-002 -3.145426e-002 1.049784e-001 -2.536556e-001 -1.749653e-002 9.671363e-001 9.701023e-001
-9.102383e-002 -3.129620e-002 1.049808e-001 -2.536471e-001 -1.748430e-002 9.671388e-001 9.629047e-001
-9.367344e-002 -5.954831e-002 1.113465e-001 0.000000e+000 0.000000e+000 0.000000e+000 9.727830e-001
-9.100812e-002 -3.213008e-002 1.045308e-001 -6.765152e-001 -5.049111e-001 5.360895e-001 9.721490e-001
-9.117521e-002 -3.145511e-002 1.049383e-001 -2.536340e-001 -1.750676e-002 9.671418e-001 9.657158e-001
-9.382071e-002 -6.035026e-002 1.112934e-001 0.000000e+000 0.000000e+000 0.000000e+000 9.718171e-001
-9.116091e-002 -3.213093e-002 1.044907e-001 -2.306928e-001 -8.432243e-001 4.855446e-001 9.696631e-001
-9.397416e-002 -6.051134e-002 1.112502e-001 0.000000e+000 0.000000e+000 0.000000e+000 9.692429e-001
-9.131369e-002 -3.213178e-002 1.044506e-001 -2.536561e-001 -1.750060e-002 9.671361e-001 9.681978e-001
-9.412762e-002 -6.067242e-002 1.112071e-001 0.000000e+000 0.000000e+000 0.000000e+000 9.713579e-001
-8.618887e-002 -4.320226e-002 9.148615e-002 -2.536278e-001 -1.750448e-002 9.671435e-001 7.955498e-001
-9.146647e-002 -3.213263e-002 1.044105e-001 -2.536569e-001 -1.749719e-002 9.671360e-001 9.637060e-001
-8.633627e-002 -4.335699e-002 9.144469e-002 -2.536496e-001 -1.750371e-002 9.671378e-001 8.211200e-001
-8.633776e-002 -4.320309e-002 9.144709e-002 -2.536505e-001 -1.750559e-002 9.671375e-001 8.002325e-001
-8.633924e-002 -4.304919e-002 9.144948e-002 -2.536511e-001 -1.747539e-002 9.671379e-001 7.890121e-001
-9.161926e-002 -3.213347e-002 1.043704e-001 -2.536620e-001 -1.749519e-002 9.671347e-001 9.514242e-001
-9.162078e-002 -3.197555e-002 1.043729e-001 -2.536609e-001 -1.749361e-002 9.671350e-001 9.578012e-001
-8.648516e-002 -4.335782e-002 9.140562e-002 -2.536455e-001 -1.750362e-002 9.671389e-001 8.120839e-001
-8.648665e-002 -4.320392e-002 9.140802e-002 -2.536683e-001 -1.749918e-002 9.671330e-001 7.855074e-001
-9.489333e-002 -6.163803e-002 1.109888e-001 0.000000e+000 0.000000e+000 0.000000e+000 9.581944e-001
-9.518870e-002 -6.198037e-002 1.104540e-001 -2.536618e-001 -1.751639e-002 9.671344e-001 9.554315e-001
-9.519024e-002 -6.182028e-002 1.104565e-001 -2.536618e-001 -1.752915e-002 9.671341e-001 9.624266e-001
-9.534357e-002 -6.198123e-002 1.104133e-001 -2.536495e-001 -1.751626e-002 9.671376e-001 9.692883e-001
-9.534512e-002 -6.182114e-002 1.104158e-001 -2.536494e-001 -1.752902e-002 9.671374e-001 9.710099e-001
-9.518334e-002 -6.136068e-002 1.100161e-001 0.000000e+000 0.000000e+000 0.000000e+000 9.764878e-001
-8.722125e-002 -4.327574e-002 9.038217e-002 -2.536488e-001 -1.750923e-002 9.671379e-001 8.344136e-001
-8.722273e-002 -4.312207e-002 9.038457e-002 -2.536459e-001 -1.750272e-002 9.671388e-001 7.888704e-001
-8.722422e-002 -4.296840e-002 9.038696e-002 -2.536527e-001 -1.749656e-002 9.671371e-001 7.556115e-001
-8.736695e-002 -4.358389e-002 9.033838e-002 -2.537988e-001 -1.750587e-002 9.670986e-001 9.058882e-001
-8.736843e-002 -4.343022e-002 9.034078e-002 -2.537909e-001 -1.749383e-002 9.671009e-001 8.925125e-001
-8.736991e-002 -4.327656e-002 9.034317e-002 -2.537727e-001 -1.749946e-002 9.671056e-001 8.596706e-001
-8.737139e-002 -4.312290e-002 9.034556e-002 -2.537664e-001 -1.749789e-002 9.671072e-001 8.130147e-001
-8.737287e-002 -4.296923e-002 9.034795e-002 -2.537586e-001 -1.749307e-002 9.671094e-001 7.848943e-001
-9.863413e-002 -5.061332e-002 1.175255e-001 -9.775156e-001 -7.039033e-002 1.987674e-001 9.303558e-001
-9.863570e-002 -5.045102e-002 1.175280e-001 -9.786543e-001 -2.500494e-002 2.039868e-001 9.341395e-001
-9.863726e-002 -5.028871e-002 1.175305e-001 -9.804360e-001 2.462284e-002 1.952922e-001 9.287313e-001
-8.751412e-002 -4.373838e-002 9.029698e-002 -2.537993e-001 -1.751842e-002 9.670982e-001 9.256642e-001
-8.751561e-002 -4.358472e-002 9.029938e-002 -2.537947e-001 -1.750288e-002 9.670997e-001 9.108018e-001
-8.751708e-002 -4.343105e-002 9.030177e-002 -2.537873e-001 -1.749532e-002 9.671018e-001 8.964560e-001
-8.751857e-002 -4.327739e-002 9.030417e-002 -2.537797e-001 -1.749850e-002 9.671038e-001 8.684026e-001
-8.752005e-002 -4.312372e-002 9.030656e-002 -2.537765e-001 -1.749923e-002 9.671046e-001 8.200605e-001
-8.752153e-002 -4.297005e-002 9.030895e-002 -2.537729e-001 -1.750192e-002 9.671055e-001 7.799851e-001
-9.879114e-002 -5.061420e-002 1.174843e-001 -9.553422e-001 2.753893e-002 2.942158e-001 9.387783e-001
-9.879271e-002 -5.045189e-002 1.174868e-001 -9.552226e-001 -3.185607e-002 2.941682e-001 9.424871e-001
-9.879427e-002 -5.028958e-002 1.174893e-001 -9.493138e-001 -8.733209e-002 3.019544e-001 9.333996e-001
-8.765980e-002 -4.404654e-002 9.025314e-002 -2.535723e-001 -1.756785e-002 9.671569e-001 9.035459e-001
-8.766127e-002 -4.389288e-002 9.025554e-002 -2.536290e-001 -1.756015e-002 9.671422e-001 9.228129e-001
-8.766276e-002 -4.373921e-002 9.025793e-002 -2.536522e-001 -1.754097e-002 9.671364e-001 9.346915e-001
-8.766424e-002 -4.358555e-002 9.026032e-002 -2.536775e-001 -1.752570e-002 9.671301e-001 9.227071e-001
-8.766572e-002 -4.343188e-002 9.026271e-002 -2.536916e-001 -1.750999e-002 9.671267e-001 9.091311e-001
-8.766720e-002 -4.327821e-002 9.026510e-002 -2.537077e-001 -1.749390e-002 9.671227e-001 8.824052e-001
-8.766868e-002 -4.312455e-002 9.026749e-002 -2.537148e-001 -1.747738e-002 9.671212e-001 8.409709e-001
-8.767016e-002 -4.297088e-002 9.026989e-002 -2.537256e-001 -1.745682e-002 9.671187e-001 7.819443e-001
-9.877653e-002 -5.064388e-002 1.170245e-001 -8.671600e-001 -2.073536e-001 4.528112e-001 9.258774e-001
-9.877808e-002 -5.048171e-002 1.170271e-001 -8.644013e-001 -2.087278e-001 4.574310e-001 9.286881e-001
-9.877965e-002 -5.031953e-002 1.170296e-001 -8.777130e-001 -1.019399e-001 4.682181e-001 9.335852e-001
-8.780846e-002 -4.404737e-002 9.021413e-002 -2.535591e-001 -1.756771e-002 9.671603e-001 9.079300e-001
-8.780994e-002 -4.389371e-002 9.021652e-002 -2.535948e-001 -1.755211e-002 9.671513e-001 9.300854e-001
-8.781142e-002 -4.374004e-002 9.021892e-002 -2.536136e-001 -1.753213e-002 9.671467e-001 9.402468e-001
-8.781289e-002 -4.358637e-002 9.022132e-002 -2.536375e-001 -1.751907e-002 9.671407e-001 9.282465e-001
-8.781438e-002 -4.343271e-002 9.022371e-002 -2.536490e-001 -1.750424e-002 9.671379e-001 9.141122e-001
-8.781587e-002 -4.327904e-002 9.022610e-002 -2.536599e-001 -1.749168e-002 9.671353e-001 8.877488e-001
-8.781736e-002 -4.312538e-002 9.022849e-002 -2.536753e-001 -1.747009e-002 9.671317e-001 8.447795e-001
-8.781882e-002 -4.297170e-002 9.023088e-002 -2.536950e-001 -1.743071e-002 9.671272e-001 7.793708e-001
-9.594474e-002 -6.264466e-002 1.097932e-001 -2.536424e-001 -1.750677e-002 9.671396e-001 9.678449e-001
-9.594627e-002 -6.248470e-002 1.097957e-001 -2.536414e-001 -1.750767e-002 9.671398e-001 9.731665e-001
-9.594782e-002 -6.232474e-002 1.097982e-001 -2.536312e-001 -1.750544e-002 9.671426e-001 9.765681e-001
-9.594936e-002 -6.216478e-002 1.098007e-001 -2.536422e-001 -1.750528e-002 9.671397e-001 9.785538e-001
-9.595090e-002 -6.200482e-002 1.098032e-001 -2.536418e-001 -1.750389e-002 9.671398e-001 9.799172e-001
-9.893341e-002 -5.064476e-002 1.169834e-001 -8.946512e-001 -1.097334e-001 4.330795e-001 9.287370e-001
-9.893496e-002 -5.048258e-002 1.169859e-001 -8.727303e-001 -2.052301e-001 4.429701e-001 9.310785e-001
-9.893654e-002 -5.032041e-002 1.169884e-001 -8.810974e-001 -1.782943e-001 4.380393e-001 9.363112e-001
-8.795713e-002 -4.404819e-002 9.017519e-002 -2.534678e-001 -1.751628e-002 9.671852e-001 9.015938e-001
-8.795861e-002 -4.389453e-002 9.017758e-002 -2.534716e-001 -1.751042e-002 9.671843e-001 9.254399e-001
-8.796009e-002 -4.374086e-002 9.017997e-002 -2.534753e-001 -1.750676e-002 9.671834e-001 9.332702e-001
-8.796158e-002 -4.358720e-002 9.018236e-002 -2.534665e-001 -1.750479e-002 9.671857e-001 9.245805e-001
-8.796305e-002 -4.343353e-002 9.018476e-002 -5.705870e-001 5.550855e-002 8.193591e-001 9.073557e-001
-8.796454e-002 -4.327986e-002 9.018715e-002 -6.094367e-001 5.612927e-002 7.908454e-001 8.792023e-001
-8.796602e-002 -4.312620e-002 9.018955e-002 -6.576746e-001 5.400625e-002 7.513637e-001 8.312177e-001
-9.609948e-002 -6.264552e-002 1.097526e-001 -2.536425e-001 -1.751020e-002 9.671395e-001 9.766956e-001
-9.610102e-002 -6.248556e-002 1.097551e-001 -2.536468e-001 -1.750608e-002 9.671385e-001 9.785812e-001
-9.610257e-002 -6.232560e-002 1.097576e-001 -2.536473e-001 -1.750547e-002 9.671384e-001 9.801066e-001
-9.610411e-002 -6.216564e-002 1.097601e-001 -2.536547e-001 -1.750615e-002 9.671364e-001 9.807661e-001
-9.610565e-002 -6.200568e-002 1.097626e-001 -2.536507e-001 -1.750600e-002 9.671375e-001 9.807631e-001
-9.610719e-002 -6.184572e-002 1.097651e-001 -2.536471e-001 -1.749177e-002 9.671386e-001 9.753942e-001
-9.610873e-002 -6.168576e-002 1.097676e-001 -2.536494e-001 -1.749093e-002 9.671381e-001 9.713827e-001
-9.909030e-002 -5.064563e-002 1.169422e-001 -2.536559e-001 -1.749660e-002 9.671363e-001 9.235889e-001
-9.909186e-002 -5.048345e-002 1.169447e-001 -2.536598e-001 -1.750425e-002 9.671351e-001 9.274936e-001
-9.909342e-002 -5.032128e-002 1.169473e-001 -2.536598e-001 -1.750684e-002 9.671351e-001 9.325939e-001
-9.909499e-002 -5.015910e-002 1.169498e-001 -2.536701e-001 -1.749427e-002 9.671326e-001 9.175735e-001
-9.625115e-002 -6.296630e-002 1.097070e-001 -2.536502e-001 -1.751190e-002 9.671375e-001 9.619211e-001
-9.625269e-002 -6.280634e-002 1.097095e-001 -2.536475e-001 -1.751710e-002 9.671381e-001 9.745906e-001
-9.625424e-002 -6.264637e-002 1.097120e-001 -2.536494e-001 -1.750613e-002 9.671378e-001 9.807339e-001
-9.625579e-002 -6.248642e-002 1.097145e-001 -2.536519e-001 -1.750430e-002 9.671372e-001 9.817218e-001
-9.625732e-002 -6.232646e-002 1.097170e-001 -2.536510e-001 -1.750614e-002 9.671374e-001 9.827365e-001
-9.625886e-002 -6.216650e-002 1.097195e-001 -2.536492e-001 -1.750447e-002 9.671379e-001 9.821976e-001
-9.626041e-002 -6.200654e-002 1.097220e-001 -2.536503e-001 -1.750720e-002 9.671375e-001 9.804939e-001
-9.626195e-002 -6.184658e-002 1.097245e-001 -2.536508e-001 -1.749714e-002 9.671376e-001 9.733216e-001
-8.810905e-002 -4.316090e-002 8.973633e-002 -9.532357e-001 -1.389650e-002 3.019080e-001 8.365333e-001
-5.951640e-002 -1.939744e-002 1.996600e-002 -2.536560e-001 -1.750350e-002 9.671361e-001 9.310004e-001
-5.951766e-002 -1.926607e-002 1.996805e-002 -2.536496e-001 -1.750525e-002 9.671378e-001 9.381018e-001
-5.951893e-002 -1.913471e-002 1.997009e-002 -2.536489e-001 -1.750419e-002 9.671379e-001 9.306868e-001
-5.952020e-002 -1.900334e-002 1.997214e-002 -2.536490e-001 -1.750520e-002 9.671379e-001 9.156495e-001
-9.640744e-002 -6.280719e-002 1.096689e-001 -2.536497e-001 -1.751009e-002 9.671376e-001 9.763305e-001
-9.640899e-002 -6.264724e-002 1.096714e-001 -2.536497e-001 -1.750859e-002 9.671376e-001 9.808234e-001
-9.641053e-002 -6.248728e-002 1.096739e-001 -2.536505e-001 -1.750550e-002 9.671375e-001 9.814571e-001
-9.641206e-002 -6.232732e-002 1.096764e-001 -2.536502e-001 -1.750649e-002 9.671376e-001 9.819690e-001
-9.641360e-002 -6.216736e-002 1.096789e-001 -2.536509e-001 -1.750459e-002 9.671374e-001 9.804850e-001
-9.641515e-002 -6.200739e-002 1.096814e-001 -2.536507e-001 -1.750500e-002 9.671375e-001 9.781728e-001
-9.641669e-002 -6.184743e-002 1.096839e-001 -2.536504e-001 -1.750123e-002 9.671376e-001 9.707717e-001
-9.998037e-002 -2.654872e-002 1.180717e-001 -2.536567e-001 -1.752887e-002 9.671355e-001 9.474251e-001
-9.998193e-002 -2.638629e-002 1.180742e-001 -2.536535e-001 -1.752546e-002 9.671364e-001 9.399090e-001
-5.964222e-002 -1.952952e-002 1.993061e-002 -2.536573e-001 -1.750492e-002 9.671357e-001 9.178210e-001
-5.964348e-002 -1.939815e-002 1.993266e-002 -2.536537e-001 -1.750741e-002 9.671366e-001 9.357129e-001
-5.964475e-002 -1.926678e-002 1.993470e-002 -2.536516e-001 -1.750594e-002 9.671372e-001 9.412256e-001
-5.964602e-002 -1.913541e-002 1.993675e-002 -2.536504e-001 -1.750519e-002 9.671376e-001 9.328909e-001
-5.964728e-002 -1.900404e-002 1.993879e-002 -2.536503e-001 -1.750537e-002 9.671376e-001 9.168703e-001
-9.656064e-002 -6.296802e-002 1.096258e-001 -2.536493e-001 -1.750654e-002 9.671378e-001 9.720057e-001
-9.656218e-002 -6.280805e-002 1.096283e-001 -2.536493e-001 -1.750492e-002 9.671378e-001 9.785356e-001
-9.656372e-002 -6.264810e-002 1.096308e-001 -2.536490e-001 -1.750521e-002 9.671379e-001 9.815447e-001
-9.656526e-002 -6.248813e-002 1.096333e-001 -2.536499e-001 -1.750591e-002 9.671377e-001 9.818649e-001
-9.656680e-002 -6.232817e-002 1.096358e-001 -2.536500e-001 -1.750610e-002 9.671376e-001 9.812897e-001
-9.656835e-002 -6.216822e-002 1.096383e-001 -2.536495e-001 -1.750393e-002 9.671378e-001 9.789471e-001
-9.656989e-002 -6.200825e-002 1.096408e-001 -2.536497e-001 -1.750780e-002 9.671377e-001 9.766759e-001
-9.657143e-002 -6.184829e-002 1.096433e-001 -2.536506e-001 -1.748892e-002 9.671378e-001 9.691719e-001
-9.956253e-002 -5.048607e-002 1.168213e-001 -2.536556e-001 -1.749240e-002 9.671364e-001 9.298627e-001
-1.001375e-001 -2.654960e-002 1.180304e-001 -2.536576e-001 -1.753165e-002 9.671352e-001 9.478217e-001
-1.001391e-001 -2.638716e-002 1.180330e-001 -2.536568e-001 -1.752922e-002 9.671354e-001 9.507744e-001
-5.977184e-002 -1.926749e-002 1.990136e-002 -2.536554e-001 -1.750756e-002 9.671362e-001 9.344217e-001
-5.977310e-002 -1.913612e-002 1.990341e-002 -2.536536e-001 -1.750609e-002 9.671367e-001 9.254556e-001
-5.977437e-002 -1.900475e-002 1.990545e-002 -2.536517e-001 -1.750568e-002 9.671372e-001 9.075274e-001
-5.977564e-002 -1.887338e-002 1.990750e-002 -2.536508e-001 -1.750443e-002 9.671375e-001 8.790735e-001
-9.671693e-002 -6.280892e-002 1.095877e-001 -2.536536e-001 -1.750716e-002 9.671367e-001 9.784999e-001
-9.671848e-002 -6.264895e-002 1.095902e-001 -2.536539e-001 -1.750482e-002 9.671366e-001 9.816009e-001
-9.672002e-002 -6.248900e-002 1.095927e-001 -2.536529e-001 -1.750599e-002 9.671369e-001 9.814719e-001
-9.672156e-002 -6.232904e-002 1.095952e-001 -2.536526e-001 -1.750620e-002 9.671369e-001 9.798029e-001
-9.672310e-002 -6.216908e-002 1.095977e-001 -2.536540e-001 -1.750391e-002 9.671366e-001 9.770449e-001
-9.672464e-002 -6.200911e-002 1.096002e-001 -2.536529e-001 -1.750620e-002 9.671369e-001 9.745196e-001
-9.672619e-002 -6.184915e-002 1.096027e-001 -2.536530e-001 -1.750715e-002 9.671369e-001 9.661195e-001
-9.971630e-002 -5.081129e-002 1.167750e-001 -2.536611e-001 -1.750053e-002 9.671348e-001 9.047198e-001
-9.971786e-002 -5.064911e-002 1.167776e-001 -2.536607e-001 -1.750110e-002 9.671349e-001 9.221989e-001
-1.002947e-001 -2.655047e-002 1.179892e-001 -2.536552e-001 -1.751387e-002 9.671361e-001 9.444677e-001
-1.002962e-001 -2.638803e-002 1.179917e-001 -2.536575e-001 -1.752597e-002 9.671353e-001 9.537764e-001
-5.990019e-002 -1.913682e-002 1.987006e-002 -2.536578e-001 -1.750898e-002 9.671355e-001 9.222409e-001
-5.990146e-002 -1.900545e-002 1.987211e-002 -2.536524e-001 -1.750759e-002 9.671370e-001 9.015735e-001
-5.990273e-002 -1.887408e-002 1.987415e-002 -2.536517e-001 -1.750778e-002 9.671372e-001 8.730583e-001
-9.687014e-002 -6.296974e-002 1.095446e-001 -1.644242e-001 4.918612e-001 8.550072e-001 9.752409e-001
-9.687168e-002 -6.280977e-002 1.095471e-001 -2.536549e-001 -1.750681e-002 9.671363e-001 9.789793e-001
-9.687322e-002 -6.264982e-002 1.095496e-001 -2.536550e-001 -1.750460e-002 9.671363e-001 9.810989e-001
-9.687477e-002 -6.248986e-002 1.095521e-001 -2.536552e-001 -1.750670e-002 9.671363e-001 9.804399e-001
-9.687631e-002 -6.232990e-002 1.095546e-001 -2.536552e-001 -1.750684e-002 9.671363e-001 9.777482e-001
-9.687785e-002 -6.216994e-002 1.095571e-001 -2.536552e-001 -1.750431e-002 9.671363e-001 9.749571e-001
-9.687939e-002 -6.200997e-002 1.095596e-001 -2.536548e-001 -1.750514e-002 9.671364e-001 9.707656e-001
-9.688093e-002 -6.185001e-002 1.095621e-001 -2.536547e-001 -1.750119e-002 9.671365e-001 9.616097e-001
-1.004534e-001 -2.638890e-002 1.179505e-001 -2.536635e-001 -1.753225e-002 9.671336e-001 9.396816e-001
-1.004549e-001 -2.622646e-002 1.179530e-001 -2.536654e-001 -1.752865e-002 9.671332e-001 9.338368e-001
-5.634164e-002 1.049368e-002 1.066553e-002 0.000000e+000 0.000000e+000 0.000000e+000 7.546087e-001
-5.634287e-002 1.062200e-002 1.066752e-002 0.000000e+000 0.000000e+000 0.000000e+000 7.546087e-001
-9.718814e-002 -6.343235e-002 1.099033e-001 -2.536337e-001 -1.750997e-002 9.671419e-001 9.603850e-001
-9.718969e-002 -6.327226e-002 1.099058e-001 -2.977340e-001 7.146731e-001 6.329272e-001 9.701692e-001
-9.702489e-002 -6.297059e-002 1.095040e-001 -1.354935e-001 5.500389e-001 8.240744e-001 9.753578e-001
-9.702642e-002 -6.281063e-002 1.095065e-001 -2.536548e-001 -1.750784e-002 9.671363e-001 9.779872e-001
-9.702796e-002 -6.265067e-002 1.095090e-001 -2.536537e-001 -1.750471e-002 9.671367e-001 9.799513e-001
-9.702951e-002 -6.249071e-002 1.095115e-001 -2.536541e-001 -1.750664e-002 9.671366e-001 9.787028e-001
-9.703105e-002 -6.233075e-002 1.095140e-001 -2.536554e-001 -1.750614e-002 9.671362e-001 9.755705e-001
-9.703259e-002 -6.217080e-002 1.095165e-001 -2.536541e-001 -1.750465e-002 9.671366e-001 9.732880e-001
-9.703413e-002 -6.201083e-002 1.095190e-001 -2.536533e-001 -1.750352e-002 9.671368e-001 9.681047e-001
-9.703568e-002 -6.185087e-002 1.095215e-001 -2.536547e-001 -1.750473e-002 9.671364e-001 9.571849e-001
-9.703722e-002 -6.169091e-002 1.095240e-001 -2.536536e-001 -1.750096e-002 9.671368e-001 9.375412e-001
-7.539333e-002 -6.335098e-002 5.708082e-002 0.000000e+000 0.000000e+000 0.000000e+000 7.127232e-001
-1.000301e-001 -5.081303e-002 1.166927e-001 -2.536701e-001 -1.751275e-002 9.671323e-001 9.116943e-001
-1.000316e-001 -5.065085e-002 1.166952e-001 -2.536706e-001 -1.750270e-002 9.671323e-001 9.256705e-001
-1.000332e-001 -5.048868e-002 1.166978e-001 -2.536609e-001 -1.750544e-002 9.671348e-001 9.337540e-001
-1.006121e-001 -2.622733e-002 1.179118e-001 -2.536760e-001 -1.753817e-002 9.671302e-001 9.415752e-001
-9.734301e-002 -6.343321e-002 1.098627e-001 -2.536523e-001 -1.749804e-002 9.671372e-001 9.650050e-001
-9.734456e-002 -6.327312e-002 1.098652e-001 -2.153291e-002 5.791878e-001 8.149097e-001 9.727008e-001
-9.717963e-002 -6.297146e-002 1.094634e-001 -4.704670e-002 5.847261e-001 8.098654e-001 9.754941e-001
-9.718117e-002 -6.281149e-002 1.094659e-001 -1.107991e-001 1.964417e-001 9.742352e-001 9.775211e-001
-9.718271e-002 -6.265153e-002 1.094684e-001 -2.536532e-001 -1.750402e-002 9.671369e-001 9.791247e-001
-9.718426e-002 -6.249157e-002 1.094709e-001 -2.536523e-001 -1.750603e-002 9.671370e-001 9.777592e-001
-9.718580e-002 -6.233161e-002 1.094734e-001 -2.536535e-001 -1.750528e-002 9.671367e-001 9.760656e-001
-9.718734e-002 -6.217165e-002 1.094759e-001 -2.536533e-001 -1.750534e-002 9.671368e-001 9.728255e-001
-9.718888e-002 -6.201169e-002 1.094784e-001 -2.536541e-001 -1.750304e-002 9.671366e-001 9.659660e-001
-9.719042e-002 -6.185173e-002 1.094809e-001 -2.536548e-001 -1.749650e-002 9.671366e-001 9.508791e-001
-9.719197e-002 -6.169177e-002 1.094833e-001 -2.536544e-001 -1.750150e-002 9.671366e-001 9.245558e-001
-8.884562e-002 -4.319885e-002 8.912812e-002 -2.536641e-001 -1.751619e-002 9.671338e-001 8.605267e-001
-8.884709e-002 -4.304542e-002 8.913051e-002 -2.536560e-001 -1.752537e-002 9.671357e-001 8.170739e-001
-6.028145e-002 -1.913894e-002 1.977003e-002 -2.536525e-001 -1.750742e-002 9.671370e-001 9.159690e-001
-6.028271e-002 -1.900757e-002 1.977208e-002 -2.536515e-001 -1.750703e-002 9.671372e-001 8.961101e-001
-9.749635e-002 -6.359416e-002 1.098195e-001 -2.536519e-001 -1.749704e-002 9.671373e-001 9.591342e-001
-9.749789e-002 -6.343407e-002 1.098220e-001 -2.536511e-001 -1.750417e-002 9.671374e-001 9.691131e-001
-9.749943e-002 -6.327398e-002 1.098245e-001 -2.500303e-002 4.986106e-001 8.664654e-001 9.736787e-001
-9.733592e-002 -6.281235e-002 1.094253e-001 4.254418e-002 3.341992e-001 9.415418e-001 9.759369e-001
-9.733746e-002 -6.265239e-002 1.094278e-001 -2.536464e-001 -1.750271e-002 9.671386e-001 9.764582e-001
-9.733900e-002 -6.249243e-002 1.094303e-001 -2.536516e-001 -1.750614e-002 9.671372e-001 9.754212e-001
-9.734055e-002 -6.233247e-002 1.094328e-001 -2.536560e-001 -1.750453e-002 9.671361e-001 9.730156e-001
-9.734209e-002 -6.217251e-002 1.094353e-001 -2.536530e-001 -1.750562e-002 9.671369e-001 9.679642e-001
-9.734363e-002 -6.201255e-002 1.094378e-001 -2.536460e-001 -1.750756e-002 9.671386e-001 9.588826e-001
-9.734517e-002 -6.185259e-002 1.094403e-001 -2.536484e-001 -1.750503e-002 9.671381e-001 9.354809e-001
-8.899257e-002 -4.335310e-002 8.908679e-002 -7.924896e-001 3.613863e-001 4.912843e-001 9.033605e-001
-8.899405e-002 -4.319967e-002 8.908918e-002 -7.841393e-001 3.906291e-001 4.822184e-001 8.628859e-001
-6.040727e-002 -1.927101e-002 1.973464e-002 -2.536522e-001 -1.750874e-002 9.671370e-001 9.244270e-001
